2.3060828991589428 2.2750604441710975 6.5551541015551642
2.3017490977998412 2.8864332887727779 8.3016416292225639
2.3085551830546387 2.8855429737497089 8.8686359105914363
2.8278618444423786 2.7987844758968214 8.8581494738096023
2.833309828533825 2.805343763542353 8.3132284445570477
2.2453733123466328 2.6098276093328181 10.464980436706954
2.1804215366175526 2.5349314030211052 10.950611334594447
2.429382427969299 2.3072272736169626 10.932598262438129
2.7092156791325679 2.2896893904010605 10.65703217044476
2.7138139248268156 2.5023622905036107 10.411448678641424
1.9253019155154689 2.4475012914001484 12.243221280547962
2.1439911844686277 2.2632282730415247 12.19022735449821
2.2380333112157662 2.2499366152054274 12.602982097971235
2.038757074625094 2.4251800782896868 12.660351386977657
2.3199881716291375 2.5658427242535793 14.268611379491603
2.1148322553441217 2.551699717707641 14.391157968408342
2.6042845377066763 2.5545460667809934 14.910820221339138
2.8093966835826381 2.5653648080855671 14.787419083697058
3.044472535003437 2.1188495479742553 16.821318192567972
3.2253386198887157 2.2861665153906343 16.793860783951008
2.9902903040271087 2.2891369072753704 16.427734857360374
2.8066092498692852 2.1098329515755698 16.464669576917455
3.5139925257395279 2.1200248417606939 17.649635681203005
3.7084335812414024 2.1480886299687754 17.833827614070792
3.6538762250442596 2.2761154030641571 17.664011703808836
5.7188321686814856 1.3677696360694298 -0.66346986990383006
5.8305603715347747 1.1812333263183736 -0.64365109417179289
5.8574831817778357 1.3459628180959171 -0.73677700041888972
5.5914756156029704 1.3240006524283963 -0.29129609966746728
5.6910197449670541 1.1353390861213173 -0.23733040095202651
5.6490347339232381 1.2697902761523174 -0.13610421775856463
5.2068951737044564 1.6256341671534258 5.3062222987557632
5.3985444701787921 1.4412633770549439 5.2730776059269671
5.4650630437581249 1.5872962232249075 5.0322255983254465
4.3151960449908344 1.3888730066633019 6.8477511693832032
4.281017155544089 1.5523002377921398 6.6040675074000807
4.6388898567076735 1.563030365342386 6.3627344540748485
4.8545388388626263 1.3654004040731837 6.3551355604959197
4.7992810023383914 1.3624006683404377 6.7959120793929877
4.3859433037093289 1.3426839832247957 8.1786017651821545
4.363189835402463 1.340980952598795 8.6410652215760102
4.6046176418059108 1.518055428859405 8.6013329876580968
4.9028951427781511 1.5071217127877201 8.3639896413628616
4.8675525350196631 1.3545539091169962 8.1227393758493971
3.9414777465216084 1.4044379447403843 9.8094190199970299
3.8999489939250385 1.5363127650488952 10.056770484582797
4.1810685739087026 1.547900623209129 9.7400465262002172
4.2481157611400553 1.572386842759439 15.468670425107213
4.1084658010818096 1.5741743304661702 15.155897097565095
4.0679198675240098 1.4425606845981849 15.281134566258391
4.2163990195886996 1.4133632427598812 16.638620104168858
4.6569025779581601 1.3773713829555101 16.619738332943054
4.5759206926558367 1.5917731976503051 16.385182341800348
4.3351281948730689 1.5663654410848433 16.296397754347392
4.1566812212266742 1.3575481100047908 16.045995283661661
3.9513104113232194 1.3837357471882274 16.166708231037202
4.5387956138521774 1.428162169981138 17.873110186815808
4.548608818565592 1.5767214235162235 18.109150650418446
4.73819256400866 1.5811029823440637 18.326644713841382
4.9620069664909714 1.4042678558645898 18.357768524296766
4.8814851534837871 1.3947787968017098 17.927600947913351
5.135186971218948 1.6201970667458796 19.312207877161164
5.3444943222836905 1.4838199678983908 19.369885404791784
5.385364361885542 1.6291910280295787 19.598903702984938
5.6646947401682626 1.9975937860375768 -0.67272521892494164
5.7999543593675709 2.0193543782807462 -0.74889419601050367
5.7464655904308959 2.1606343455251626 -0.66447946498042942
5.5504693538439049 1.9132798916558416 -0.30357869281051819
5.5990229135737071 1.9040300563619463 -0.15299327273852928
5.6148554954999552 2.0754162752048737 -0.26295412794519762
5.1983070713387391 2.1987547203904043 5.183133242525737
5.4718338652917664 2.1909729099683255 4.9040416172097139
5.4089305402315331 2.3489722359998781 5.0990211015792708
4.2865061614481572 2.2978249921208591 6.5644624861115304
4.3150711580001371 2.4699749713260131 6.8002189926907386
4.8085973476735786 2.4897669753032221 6.7281226375742618
4.8701269156215679 2.4785405489792454 6.260992134376135
4.6397664586173963 2.3039023127604792 6.3187116876633764
4.3497347792455168 2.5077271570201027 8.1764835239767866
4.3152577034726312 2.4842312647540803 8.6544626984602058
4.5758116243847411 2.2806837058222031 8.6110283536886776
4.8798705338301041 2.2732017842381502 8.3640903848696535
4.8425782939592796 2.4512613962581637 8.1020548783186275
3.8814904947873545 2.105009031918692 10.090108097556968
3.9069380880194231 2.2811772952619136 9.8605330708208676
4.1543897696285779 2.1165849478794256 9.7797570725213898
4.3006790921970453 2.1405772806577552 15.562404776603914
4.1803765986051484 2.1158055537106719 15.249852085115712
4.1479029170398007 2.2911614696788121 15.393332514493235
4.1386801779016009 2.4726165948315346 16.709976315050532
4.5781758692217966 2.5877436176657338 16.685660088851375
4.5216876857363442 2.3524908660338011 16.431104063497646
4.2976021959419466 2.305174969103434 16.351323908637848
4.1354468711013022 2.5161668053641022 16.134058172785753
3.8999149746911073 2.4795360229514158 16.24804595462075
4.4663246922432753 2.3575448706265991 18.162327935708824
4.4266556401210941 2.517034984772311 17.942205137419947
4.7796444990632256 2.6261636929744556 17.993525270326863
4.8691415975721171 2.6235215020530203 18.449781296725217
4.6626288849894388 2.3712842574480648 18.390914850750026
5.085402814811153 2.2439254820126648 19.389406764849095
5.3386036749281676 2.2521531287869343 19.68168828889295
5.2762867670062512 2.4456969973943607 19.486192012991289
6.8429192913240771 -0.23461282590905394 -0.56244429748605163
7.044899014561107 -0.41654825438533416 -0.5536147861807128
7.0153210036488387 -0.22497708077041365 -0.69086922756650648
6.8538735032048219 -0.41052795052539509 0.20526936370672536
7.1089169591416423 -0.59876570597425327 0.21773421746594343
7.1669254835761151 -0.63079554141937744 0.55523355361098936
6.9117026638222132 -0.44214571573050254 0.54315657900920988
7.1886080279171782 -0.45508107200545922 1.5097035119828752
7.3966092583357312 -0.63086881232923187 1.4924580513616716
7.3995262340969905 -0.49057445594102844 1.7341543105140167
6.4420179059472575 0.81941640275594196 -0.62157177685700038
6.484300480817903 1.0457216473662565 -0.75837352641740241
6.7936923371394835 0.99765256082208675 -0.78586664941226858
6.8085386316476209 0.60911975577838728 -0.76108652350596218
6.5825640381351214 0.60069483799617407 -0.6075003581234758
6.1735678666710792 0.70295343359756235 0.19118636171242639
6.1090586707794587 0.88908445596901553 0.33894774691350638
6.2714977299215384 0.82296378226946687 0.66654816980431453
6.3872010972009097 0.44575765757625579 0.61877944848075239
6.3328638295870805 0.47708079442635726 0.2353495246221565
6.8802469355188647 0.34655320879398455 1.9855169953337992
7.1497570318161836 0.29167451706544384 2.2507311963430445
7.083688467520755 0.50088784831070565 2.6239214410036662
6.819619544344997 0.76061381784760063 2.5998033448782412
6.7753368136446479 0.71032066612111699 2.0762935984028541
6.3328913416418864 1.0479072147330573 4.7754435319731439
6.3628416158529744 1.2482852443496533 4.5191150641763151
6.5509922414150124 1.1425966124457647 4.1958924714817574
6.7940578677883146 0.86225592467871515 4.2233769025585373
6.7441850692824277 0.90154850299127764 4.7374495346980927
6.2085187110548183 0.9808960676873576 6.2484960341417413
6.1972898290220106 1.0109297028573847 6.7561239069154677
6.6867999974016685 0.911405591447082 6.7883964211529531
6.6870012693399676 0.86295465638802427 6.2562151227329839
6.3462569116071075 1.225506142932522 8.1528107177762852
6.3835642006182409 1.3969695886989455 8.3826314856842501
6.7184706769695071 1.363546151344412 8.6472823661046565
6.9234910936019336 1.1723072187964636 8.6856283438325832
6.8209645161874004 1.143013875143051 8.2129399537886556
7.2595179971609669 1.3400222805594628 10.183646567925759
7.4350451856272555 1.1487881378257032 10.192061979254934
7.5171029748488065 1.1530718470864476 10.711957589927742
7.3467340116504261 1.3444464524356106 10.71131070057651
7.4240673216368664 1.3885225498562277 12.205103738528342
7.5992803599482404 1.2042600221294091 12.199356270340166
7.5937472806748962 1.2305809864683739 12.702407922488344
7.4139026984215279 1.4124384336498099 12.710501687664834
7.267998302628949 1.5122871086504726 14.288744486368621
7.4639600930516998 1.3314782771347726 14.275405679922606
7.3635242520980739 1.3657682657069563 14.808803745719757
7.1552243356567002 1.5487563709898235 14.821646853931608
6.1774738104998015 1.4218890056203799 16.732636938147529
6.1470276801964543 1.6274682066932959 16.507305297564958
6.5391506481938677 1.618624234123119 16.288930387611895
6.7877443755050866 1.4218793960051628 16.274350993617915
6.7013398282270726 1.3952478803947004 16.754716884217171
6.2180572750820682 1.1909368330960588 18.166171885173586
6.2768251636520631 1.197691242060789 18.66662360666129
6.7697025402341753 1.191887681311192 18.782333524691737
6.7206133943303685 1.1767503249159728 18.245598589829939
6.4591536063275647 1.4657017311991152 19.918617863041966
6.4907923874011964 1.6603989344376353 20.182903817358486
6.9343911302142285 1.6810043486770097 20.382768015584407
6.9038022578411429 1.4791420241771478 20.103877624931364
6.4154297246715624 2.2425189689671776 -0.79399310735846185
6.3321265247349965 2.4444617184195985 -0.67277790149595407
6.4862173389549973 2.6957059888469712 -0.65499665749621327
6.7445160840616731 2.7070864375451515 -0.80956231228027786
6.7321237469029906 2.2631429537444743 -0.82482289243103502
5.973040812021762 2.1334143269788806 0.29788084332767933
5.9973610039536629 2.3695746204768717 0.13324840501687127
6.1556285847818515 2.6282866033876515 0.18516171577807203
6.1724134434698197 2.578734874495642 0.59335893779436288
6.1114208871956039 2.1203602650790834 0.61824225297522573
6.4770318939946199 2.014651161694748 2.1379087910456631
6.5461335922725752 2.0238577467788259 2.6869902007099609
6.5934287230586772 2.4425444701581438 2.6719590803653333
6.5255395593292773 2.4560663560308442 2.1179077181142514
6.4418886547910388 2.2774893783927408 4.4353134457994239
6.3722742668763628 2.5314730501318179 4.6474170282840044
6.8643527921666783 2.4845801912329346 4.5924710467302408
6.9045251319595051 2.6033971196190566 4.3285891453879346
6.6269155568120777 2.6024407466937984 4.1081645757207506
6.6075070819894046 2.183338773500096 4.1423934127082251
6.2675685106058534 2.6675237930913065 6.0227857420488373
6.2429065722001686 2.6560711967680044 6.56221280919448
6.7326593811561271 2.665951695591152 6.5608622923686148
6.7436360901793844 2.6768524768415189 6.0020471894486036
6.3646028845798979 2.1535765775855475 8.329813347414003
6.3396101485705669 2.3491363980448847 8.0723094527636832
6.8103484139975965 2.3616766379821659 8.1027211955082858
6.8900436879881308 2.2953921285634804 8.6138562030554375
6.6975089385954361 2.1263427527041112 8.6029777624260859
7.2015883686455311 2.0933618101025795 10.215864295319887
7.2808470284856925 2.1077360021371088 10.76174557659124
7.4382956828786817 2.2884968406608137 10.789874887082972
7.3678408405670748 2.2694420732193166 10.239636760311713
7.328862585854818 2.1518315269866322 12.274702643195321
7.319371716916673 2.165159864319536 12.778333215442148
7.4772294125851211 2.3483803545759625 12.808976057544735
7.4827852420714844 2.3376929822215482 12.309532247524599
7.2052663098169063 2.2219676464182356 14.318765266142849
7.1015570346909458 2.259382136578866 14.843633555932092
7.2989759681788664 2.4210169236846246 14.847099148565922
7.3851396967176406 2.3891651200674549 14.326206754229045
6.110254401747838 2.4566871203909657 16.526545707591993
6.1212926939293508 2.6795698166696638 16.760112039710794
6.6754446246885646 2.7054757551161157 16.779454146578875
6.7526091702241233 2.6035705932644624 16.300728679670687
6.5065979882310767 2.4425711968948605 16.301677593030725
6.1545467086031467 3.0573374163026616 18.224498830893065
6.217153547713365 3.0886184757163844 18.749523347312504
6.7710989145771467 3.146522634834251 18.854975431601758
6.7067811246265565 3.1073951701804146 18.291778291761347
6.4654291965928126 2.5178461686038998 20.275352018144503
6.4356444376227202 2.7811240055815252 20.031632718340923
6.9312443100668499 2.8395934438452115 20.214523676338345
6.9423299014358628 2.5621839304015843 20.478287927923891
6.8594736736021353 3.8178086017998214 -0.5751243628356244
7.0518614489130682 3.8207294257760087 -0.71316391803645096
7.1100439022585133 4.050383313476134 -0.56291197314444541
6.7916422702344725 3.7613784787052618 0.25199420971909026
6.8331176357469969 3.6984864872247067 0.65189412789045809
7.1503324208988319 3.9417162613278141 0.67035286795028715
7.1006904464819405 4.0021682105953307 0.26721924613014619
7.0443374352369652 3.5143562879423698 2.052282236790433
7.0852466318905511 3.4554654183907481 2.5383348708202824
7.3425005049468695 3.6610093481802788 2.5273889166480847
7.3200220342521503 3.7342267988905999 2.058654549279912
7.1144981491552937 3.2848309323541924 3.6912961933643134
7.2812938501405213 3.2884533916331313 3.8845401048073933
7.3517457827003954 3.4599149254845312 3.6339630806765495
7.7914171256841138 -0.53766820377278979 -0.4725881624175709
7.7668306381613856 -0.35744438122567934 -0.62774275090233811
8.0056458252819471 -0.41901980464502869 -0.46422767304235119
8.065303069415668 -0.72835886393416727 0.3508950381704119
8.1175569911392138 -0.74640926474055835 0.70299032242268789
8.3687878866610657 -0.60779319803139686 0.75042154008294759
8.3202096831989856 -0.59572274188435925 0.38400974112589559
8.1067089172401214 -0.69782054647589786 1.6336181595180386
8.1311129688934152 -0.55343389492336637 1.8787983479967363
8.3150025235516889 -0.55211591791441617 1.7208413601146813
7.9289177891346281 0.46509531828074718 -0.75300095903930053
7.9530684538237395 0.86705310815893322 -0.785577067967548
8.2910757377744861 0.82750442338214891 -0.61171242923547953
8.2442041936252615 0.41523089152939618 -0.58545947103400586
8.7800219161738138 0.3252412225958769 0.40994311910162934
8.8205284505795927 0.31774637037009934 0.85448098931131256
8.9120785247481162 0.74507188941062885 0.87361842699997649
8.8624231487381024 0.75953393161586547 0.41497014762786877
8.269043774378126 0.2728336321275594 2.3949117735764887
8.2442206107348941 0.46465974423593903 2.7254575934958094
8.5484266785963072 0.74043755716315707 2.7353150827518053
8.6359983442103179 0.71501992077011445 2.2627637851959892
8.5299229058586619 0.30459228514858849 2.198313720080614
8.057491472499418 0.71516617503915814 4.2520083035898812
8.0085402496086004 0.77535764589694056 4.7716442622359567
8.2881274245357126 1.0295679184809678 4.75918563839579
8.3430803335266095 0.97065220850931755 4.247142793586475
7.9531846508124522 0.91689086432970679 6.3368900155796402
7.9417119147474367 0.97950947867183114 6.8634996624478939
8.1904059126785871 1.2103970905484656 6.847281939905753
8.2095041447493706 1.158815431210805 6.3190151784657003
7.918924413268134 1.0681815880071885 8.3576130848511045
7.956799587224344 1.0828748730305482 8.837580202670182
8.1690645050742603 1.2679881392591712 8.8553042259998076
8.1462525928589677 1.2630079780953474 8.3609647348140275
8.1264060396199564 1.1003008635547391 10.307342677723483
8.1730556984837008 1.1147670960820109 10.799115578726802
8.3335904991637548 1.303290327588015 10.835062982031985
8.297736044162118 1.286086916506485 10.344233584155758
8.2605879269263571 1.1964396210423129 12.226351025210498
8.2709598343224293 1.2215276576685323 12.715544035492094
8.4274978339563997 1.4122506007538265 12.728361600297571
8.4133820758910947 1.3903766900035917 12.244494751497363
8.2424776479534945 1.2789578909512167 14.248235246585857
8.2009870666873166 1.2979315439234356 14.765004840163208
8.4008671123110812 1.4633675883809971 14.770786147066033
8.4248420028577673 1.451863269809887 14.259972189307163
8.0310882000025625 1.3428512875701191 16.273412570894873
7.9916629241192707 1.348632655074679 16.786219711289966
8.2646616016167851 1.5210679091752117 16.801713433906897
8.2894533458836648 1.5016020819543263 16.277815668268445
8.0093200190774763 1.4094561768386853 18.449408828797878
8.0298014598957366 1.4458654476136084 19.023139029775429
8.2874625515870441 1.6595793966531138 19.076264636603174
8.277428745194916 1.6242131221297329 18.489991993162732
7.9804300898400555 1.6174584043210802 20.42933140134749
8.0064748994897084 1.7809480330433365 20.733540701351824
8.2131273705250329 1.7804404936488718 20.513793885519355
7.9536591524987763 2.2704406590118227 -0.81103439990998671
7.9355502204438961 2.7358955038745565 -0.79568746473255059
8.2672355028813325 2.7422914082046157 -0.62756303314911155
8.3039045971578407 2.2632058085376734 -0.63621633313969073
8.9170022696005145 2.23657692074854 0.39255121685817612
8.9950814696037149 2.2104873470421396 0.84945491655971295
8.9374143995359123 2.7036356121980334 0.83684448089266994
8.8591199599723947 2.7376567747909233 0.38383816470245241
8.938362211682426 2.1422053152702416 2.2978734466559119
8.8550738756883032 2.1439679870440429 2.7883836882156174
8.829399191657096 2.6049248282387762 2.774586429042611
8.9070881121770782 2.6221726960163059 2.2840004469173079
8.0905120779897288 2.4901896705567443 4.5991930029575778
8.1087784968252059 2.6164938051627109 4.325055742727157
8.3966679495278651 2.6170767666753978 4.115550498833505
8.4353820017154355 2.2240004143148617 4.1739431328483931
8.3618574159409764 2.2426420958711368 4.6389588494962588
7.9767145476031152 2.4372816164170623 6.0738751681557606
7.9551885850258657 2.4349797912598055 6.6191628489531213
8.1979811128434221 2.1945781282728021 6.6665555186230616
8.2237901295363454 2.1892062621543542 6.1249876134783383
7.9432992153906055 2.3376933677361098 8.2097527679120574
7.9811414807770671 2.2991751289875659 8.7316319034541081
8.201610293656735 2.1107891541539119 8.7714400085058664
8.1753762131177012 2.1295794605418501 8.2499163779297096
8.1550638815790055 2.2971588525556887 10.343547594163503
8.179543368757793 2.3091884659562916 10.875628063305308
8.3528309185713958 2.1268691211383564 10.885344757179581
8.3372379689404905 2.1091490552603704 10.366958317585228
8.1955449748626616 2.3757729116664956 12.354845315139473
8.2019932010513656 2.3870329325714028 12.838828257104916
8.3826909834634442 2.2101428496008397 12.825172775886379
8.3718285282703349 2.1971444725158586 12.344855690111434
8.2183860051983135 2.3917767397553544 14.30416405339132
8.1926516725302285 2.4033946552052816 14.806050958588392
8.4023045616952832 2.2208014229995987 14.789908234401718
8.4158230721304488 2.2135420464795001 14.289681169371489
8.065156564727836 2.4887836152349632 16.295841623794914
8.0405645840572255 2.5645903884178636 16.803679739034482
8.3081175729161476 2.3434898983766668 16.810068147826779
8.3231754005725929 2.2841268267010668 16.289321476339822
8.1177018524158573 2.8144915140239499 18.467503757625433
8.1676485608605365 2.8690949879365726 19.075092146955832
8.3894952337497894 2.5897477817004364 19.102842393406071
8.363005911263059 2.5510454098283404 18.493973849483652
8.1050599408074362 2.3966408079947925 20.91911008534867
8.1271405331225992 2.6305533805489079 20.627833590320776
8.3257395672431187 2.4080473387367265 20.675598578841921
7.8231191995704243 3.8329968156426122 -0.67694951255090829
7.8583807821866083 4.0522998545060647 -0.5165757312410878
8.0655495090468676 3.8501913890695398 -0.5159088714318526
8.1338825476719823 4.1098916058390138 0.36319844923599925
8.1913632992028891 4.0565976656454295 0.77580664361906138
8.4661098508978725 3.8650436628519058 0.80390243205491896
8.4001104908918283 3.9144788897706766 0.38332930215137762
8.2238822929162723 3.8544241049412173 2.163228908371909
8.2101159020866863 3.7752289330864239 2.6136473834572747
8.4449659862839024 3.6172403623186855 2.6479840073175023
8.4785883120673855 3.6850722247063108 2.1960249534657579
8.0497957047541622 3.3587010084665039 3.868595337969249
8.0735309511932751 3.53377662502412 3.630655072356658
8.265379467679395 3.3960991983031708 3.6815553213457792
1.5874806049874233 1.490091486612241 14.804676052537641
1.9327707339435176 1.5051780065190579 15.205043812170539
2.0561835326479261 1.3571179423295616 15.131550318323356
1.6731259636107014 1.3382987796007726 14.714728444670492
1.539336206891541 2.1046659534210068 14.825445606358523
1.8776744223307404 2.1057540305787774 15.240388509562358
1.9972014221331347 2.2814996457631675 15.190354752821447
1.6277514467890462 2.2801774425710608 14.754254805496089
3.2905322480511066 1.5679703990307372 14.215459791395677
2.9606464315110883 1.570090004881022 13.815691858651585
2.8117286651792774 1.3991892000645303 13.867958331545761
3.1794119730067694 1.409014977103247 14.287035430338131
3.3673172786241063 2.1755434207852877 14.256777235992471
3.0305830470819162 2.1888691282757167 13.847150753786153
2.9125763347377842 2.3565400639373055 13.923647494333508
3.2834217032773454 2.34116144506782 14.354661396528087
-0.62547466911413718 -0.055921264920153133 -0.37665710591582635
-0.65630155798165934 0.26097551289305826 -0.3896960050068396
-0.49158536579453166 0.2472107059785035 -0.57945943442049841
-0.48978208443629551 -0.06763596409674498 -0.54538566930281696
-0.80058768745231346 0.63252215684132385 -0.14756583072528889
-0.89369706895558387 0.61868360196669892 0.16995714369400799
-0.90800245777990463 1.0378704332966171 0.15337127132973222
-0.80561992413230599 1.0526044709421112 -0.16261521207741894
-0.91102205208130282 0.22493250631002673 0.55327277296070765
-0.83277326374688043 -0.10252737543207199 0.56878869188435544
-0.86170943090837482 -0.10917064679945386 0.97400203827671938
-0.94620164637197757 0.21468706503000762 0.95700131426195112
-0.63592425071269021 -0.34027890243922426 -0.10018442837058737
-0.68076158016528576 -0.35403874547629977 0.20886188287148633
-0.52369191345298982 -0.54528582406990911 0.19240735324367758
-0.50590193169683451 -0.50933107975075909 -0.11560787911311228
-0.31015549979509299 -0.52156397370965202 -0.41445543032329168
-0.13424878007177379 -0.55056298479029653 -0.44997736803400201
-0.12940588350384929 -0.3939167829797694 -0.60316901907877574
-0.30500080252288192 -0.36562251035972637 -0.56658086607523717
0.090878134718316933 -0.61857711157869366 -0.23634519104308527
0.12650549402824993 -0.67623704372525917 0.059688867546948188
0.32326296244943981 -0.54475510346095213 0.015191540022499967
0.2536265181276563 -0.49910927180019271 -0.27645657508647864
-0.086463087036986006 -0.74563821830867871 0.47536699588782499
-0.32764524110989612 -0.69086215081099112 0.52331926961924391
-0.3385385997146208 -0.70139329682931206 0.93695837252161696
-0.090458160249178604 -0.75636456577504541 0.89341872357565999
0.1050597151387455 -0.1695003927596834 -0.67543702317183973
0.1561941108201291 0.13089950795149932 -0.72929490839318301
0.34879755923388245 0.087962347276346387 -0.59735039161352532
0.26305872089308935 -0.2079266545516546 -0.56009219500398644
-0.023199510519831761 0.54398436113741611 -0.78435118557079686
-0.26565003682115168 0.5883488146676179 -0.72744902116319055
-0.24150397117324532 1.006373697809225 -0.74675959320608842
0.010392782359419301 0.96127163572315844 -0.80207041232180631
-1.0233717453651447 0.5712775247943862 1.3646549324634558
-1.0372248769249901 0.55252062137594848 1.8104877409654705
-1.0684178191488127 0.95167752913622239 1.7942796830378214
-1.0534752129514673 0.97644078964027781 1.3455989693425103
-0.99173705727999406 0.18316842869217248 2.2968435740132529
-0.90965284666195911 -0.12018534187872039 2.3183596272452229
-0.91848466444188281 -0.11492957054548612 2.7922880665568246
-0.9969664753397518 0.17849058416758332 2.777005889727409
-0.75253901127019796 -0.37561535456900058 1.4133347827105049
-0.77042303775670762 -0.37383907041146136 1.8658645559324936
-0.59906462301966235 -0.56202769330080993 1.8637614320647657
-0.57663781628347821 -0.57092217523514843 1.4061276432210146
0.14067622036508073 -0.70286825449760237 1.3091952392158133
0.099837990861281867 -0.6685858550790218 1.7949876646263281
0.33532357436543875 -0.53050716556247413 1.7747684129768266
0.37575513958090917 -0.56780796164690572 1.2803725356092803
-0.19074284710657635 -0.68094848665890007 2.3061040479460599
-0.42021756840479735 -0.65187185146640458 2.3212222049548967
-0.44968212159171611 -0.61863948255889345 2.7890988877139589
-0.22941537314713556 -0.63881976610856339 2.7778048742419572
-1.0476217742742613 0.51089355909649881 3.2658873677869664
-1.0396521450435576 0.50400297853457454 3.7717489342931922
-1.0714917385273284 0.86709605602234829 3.7906631011954128
-1.0788151014686373 0.88395343252010994 3.2717968886871938
-0.9739558463640402 0.18481441255803926 4.2428141647141215
-0.90623178924606151 -0.082067583176726772 4.2082837650180531
-0.88388938286800822 -0.070102148831347647 4.6556554775409147
-0.94515728264106058 0.19071519023300731 4.7184264235950613
-0.81036216893801227 -0.33193077953854178 3.2671706495649899
-0.81184742835140111 -0.31178634382808162 3.7264430970782212
-0.66718388086112079 -0.46503600230269632 3.7053267836980264
-0.65916655306582184 -0.49309011006890452 3.2579866919009897
-0.032613497867881792 -0.52690672933205307 3.2223640297541216
-0.058628377017798217 -0.48534299585278545 3.6577311870544928
0.16084706190995662 -0.33542087410406762 3.6799816686951288
0.19117520576074837 -0.3786355389114755 3.2341764908199471
-0.29169901456658137 -0.52545216472806955 4.0779142437281379
-0.4934788692189005 -0.51906812152543369 4.1042943567359256
-0.4936904687109645 -0.49537730730673757 4.5046492447164024
-0.29812230248025556 -0.50258990367472445 4.4729056952232407
-0.94150739424902141 0.49967411494720504 5.2677432532911217
-0.86888794803937275 0.49961274857296045 5.7270556982161231
-0.91321705414958543 0.84041465824282513 5.8218793909052042
-0.97755010749873916 0.84904496032042664 5.3370133767783505
-0.74244843935965243 0.20622753478018294 5.9106552596859538
-0.71567492450283421 -0.042117227538404335 5.7392880203764456
-0.5918214305831947 -0.071468535992520468 5.8981185475709781
-0.59427240323728914 0.15381854484944105 6.1049945184928038
-0.76888856782711068 -0.26066618013017939 4.9843923801547918
-0.73185167835354026 -0.25181952622670151 5.3147009204187361
-0.6294661858222097 -0.37982676186135417 5.2441082802679233
-0.6479190294711995 -0.40167336928285091 4.9189183116519573
-0.10175186919074647 -0.42721069949880419 4.8304889722166413
-0.10747927319645827 -0.41541439621347209 5.1534865175933087
0.061393412318025233 -0.30706332409793941 5.1989595143593039
0.094200111365193226 -0.29835787355901283 4.8721290626898455
-0.29125857002324773 -0.41586175544934895 5.4685552229219585
-0.45253808060837503 -0.40117056591446298 5.4995115165010535
-0.43066952007970677 -0.30049775559640529 5.7284707018478898
-0.2622074994102106 -0.31907872688408512 5.7001125522347591
0.010112002462878298 -0.14985271896174412 5.8317219838419847
0.12890305729151516 0.040701386602129082 6.060842158928315
0.31058544725517634 0.06284331671810256 5.8407848505163287
0.15133226460628427 -0.13770816595312851 5.6425443156354111
-0.044425731328832471 0.21085806454290809 6.4129826260507858
-0.36138406372297405 0.27088744638976281 6.4184918394879267
-0.34868224756841748 0.4071488359571549 6.7590773660664807
-0.00085355438643971071 0.33331880587310775 6.7600272586118875
-0.64666325382248058 1.5006952757991701 -0.4403329132130987
-0.62852835309984412 1.9626572624858092 -0.46241758298921715
-0.43387916074055777 1.9498733678298728 -0.65431049936824992
-0.45182824750331535 1.4860824603863916 -0.63540196105695645
-0.76139397813490739 2.4254082809103701 -0.23237785322361576
-0.87190998864282154 2.4009085301464461 0.079095691841753774
-0.84018064865003717 2.8640096811631151 0.049766773256655156
-0.73731820781110646 2.8897589429254191 -0.25818079935874116
-0.97306873850809172 1.9079245764548962 0.4698237736961946
-0.98291194971278328 1.4574159214361273 0.49557019958553733
-1.0334421626448635 1.4325365376586017 0.89690054068198
-1.0256654530044083 1.8783669328478714 0.87292911424545661
0.28146612527109549 1.3624140015018724 -0.77762534548345652
0.2913825519680957 1.8293734954433405 -0.78493698805271805
0.50971393067513593 1.7904262244175835 -0.65021429568523126
0.50201160109330367 1.3201938167272247 -0.6441315719229711
0.045699942545408968 2.35110952275816 -0.83293231987407557
-0.19845815670893399 2.3940935925146611 -0.78953202747058548
-0.20523038547033695 2.8645827300387827 -0.79647406725213432
0.028379013753875561 2.8235370303707437 -0.83561003550711288
-1.0333729764178181 2.298732107565761 1.2857907919870442
-1.049996831466369 2.264157467979838 1.7542507959460203
-1.0066817115249749 2.6947461425508683 1.7316766054974857
-0.99074097439749553 2.7416056915626936 1.2583685504422326
-1.0833124457350436 1.7846478405436634 2.2583910442516837
-1.088618949454097 1.3479945517247061 2.2620697268454153
-1.0928604863332827 1.3164499923728381 2.7637258724502658
-1.0887449845414638 1.7434819795589087 2.7665696546609633
-1.0707395733270417 2.1126040684731575 3.2862630155677426
-1.0693838044827548 2.0611436626965469 3.8194973574253241
-1.0346453162718154 2.4403581540656765 3.8022008619444119
-1.0326147285641452 2.5041032277783146 3.2710633681333503
-1.0739617421553855 1.6355625696170295 4.3564753991639806
-1.0723047296173525 1.2394722529851268 4.3398871730308359
-1.0453835214302005 1.232115873148085 4.8668019423960889
-1.0492291624393146 1.6272417393365224 4.8868728165655684
-0.99367188872718015 2.0304241867213881 5.3968062763380473
-0.93379177291229976 2.0769971353530741 5.8806934843524035
-0.89896352323635864 2.4248434887205019 5.8265336761596398
-0.9650967882964151 2.3886507138026585 5.3605247469373074
-0.90523179472572124 1.7113404286223146 6.3000765907655207
-0.89733350494626274 1.2370556925226255 6.2816191173231832
-0.86544782332485271 1.2547510345927613 6.7028094784458272
-0.8726140845645981 1.7255567746387379 6.7127833703806949
-0.79647284383917105 2.1153861255535262 7.1391860761078414
-0.81505474537431555 2.0931434684250374 7.6501008752715638
-0.63684668083440399 2.4238744575980857 7.6483016351628184
-0.62836587273254185 2.4429676971735477 7.1494699610084957
-0.92976309922551048 1.7052995254271004 8.1942043614168103
-0.929891803929357 1.3119065962112746 8.2087051457389801
-0.95512904184417047 1.3189573958752527 8.7505551220660767
-0.95310600509891463 1.7051568927506962 8.736060339704137
-0.78393872260435649 0.90638125461049246 7.1427095930549358
-0.80945770426171038 0.93647846299767457 7.6802753617358528
-0.62892942041926503 0.66232333675540966 7.6975637256480587
-0.60956413194294101 0.63216043840969094 7.1604501166878007
0.37285583359252011 0.40967208739932154 7.1649034071335063
0.36118726307993132 0.44666104289634734 7.6992254140068468
0.80187940079977027 0.53362497781304663 7.7008689777082795
0.78806247137928431 0.50347209564065376 7.1722822745088468
-0.051528613220296497 0.457826088284291 8.268156688467462
-0.3911529596597883 0.52316835658452165 8.2651988477292484
-0.41288428388741988 0.54042743283896599 8.8084480780805432
-0.068925938724262351 0.47581426870084281 8.8155873910662859
-0.86688556412890416 2.0736381664354528 9.2685832713679996
-0.86494581312716778 2.0677542122597656 9.7986825444632153
-0.66981252653479773 2.3858251691800585 9.806620758041138
-0.67421041777791912 2.3966961941398099 9.2697799733698947
-0.95065107057351217 1.6958255122821551 10.316394274522066
-0.95553430862325084 1.3157139199284433 10.314503362358979
-0.9194772996415449 1.3238740438526697 10.806269272524897
-0.91466416382623794 1.694986717092883 10.814183523073497
-0.87850953421141775 0.97984830020131186 9.2980178939090532
-0.87998770631028722 0.97738387397655035 9.8118118367605458
-0.6978272434209144 0.71743468569531665 9.8264344364309775
-0.69529758147975207 0.71654621459513235 9.3154338969255726
0.32560913769654459 0.49977376560832282 9.3511645172129327
0.31560509565327305 0.50170268111409322 9.8769905812063357
0.77032702691426003 0.58031636106027629 9.8933676799586916
0.78198570705724113 0.5758690854179016 9.3593587842491299
-0.086241169933592432 0.50115676751739024 10.377437383621972
-0.42241310918554292 0.56700595046857427 10.352825970208801
-0.39912922075728935 0.60770103280084886 10.858220314119368
-0.073209529400146203 0.54976142690343921 10.897907209617046
-0.76429944110191939 2.0332012175388723 11.294074728938424
-0.69042941079621023 2.026104915934531 11.704379290184779
-0.51592570303171648 2.2593373246825106 11.74993659539434
-0.57296161964272185 2.3103277904803763 11.333405639233423
-0.63720006265286488 1.7299161777314218 12.036588449413058
-0.63511728998106964 1.4442936121891277 12.016808243388557
-0.43928911232074241 1.4889523732843655 12.249589236457942
-0.43855215259316116 1.7705967964617795 12.269595480902984
-0.7797679190732244 1.0317996118507977 11.259791347383855
-0.69915573173933199 1.0842213021945164 11.656502592181816
-0.54467242042426678 0.89133650148401322 11.686110978546813
-0.60789870843664229 0.80733951667025428 11.285904464928276
0.31595248230401579 0.66387915051382962 11.466049204357725
0.3657207682548374 0.81368712305959046 11.980996034509907
0.7119314492173997 0.86892839006023026 11.981609062046678
0.71882005620271128 0.7392056996303632 11.472488666380869
0.12303367258281488 0.99280154612925131 12.270404580433608
-0.19299492773069657 0.9875686150936579 12.134493259561278
-0.15298904645923825 1.2217399411620453 12.337237286908437
0.16121720994702765 1.243388460436764 12.480663097668781
0.39507974736822782 1.5724460102180629 12.685354581850302
0.42642919952617281 1.9468198052784984 12.700033731693175
0.54762938324326293 1.958868879447627 12.839872134835616
0.52495761643515937 1.5969813466719678 12.826502202067216
0.2283891888228449 2.1998466558031264 12.521570387335768
-0.11933346267663753 2.1257146608723678 12.38648735400491
-0.14280659262133144 2.3206679890366098 12.199486812103538
0.21117496431019675 2.4114040772076559 12.327532543272952
-0.58296284221530115 3.3353492914876841 -0.5211677822401154
-0.5582839630655676 3.7167666866755114 -0.53469712134363612
-0.42462591105166836 3.713727262339221 -0.68458783758166808
-0.41995247845031636 3.3295069206787709 -0.69304621158271507
-0.58325630763915493 4.0397248533841186 -0.31060077608661862
-0.6316904220102445 4.0190335815568847 -0.030873225258770398
-0.48715890219985897 4.2240427958861817 -0.058808902955123143
-0.46521337163201343 4.2206576001720677 -0.33565634715119774
-0.77988318398943313 3.6651978991810199 0.34435180950894428
-0.85854594086921965 3.2684294856682814 0.37761201245155096
-0.90051245723161599 3.2181853355148724 0.78218018794504895
-0.81268632695424015 3.6063871439734876 0.74696480386373543
0.20879807187413443 3.2267517226679123 -0.78801819036255727
0.15582160194886047 3.6168350932182203 -0.7675039630803252
0.30677439781188742 3.5872769448038597 -0.65030817996915236
0.39132997836175293 3.193653745088699 -0.65719489142915077
-0.090826749922457886 4.0056332096404335 -0.74287756038117025
-0.25876015838728705 4.0322167552230814 -0.71876567844597805
-0.274337861246089 4.2142011744929597 -0.5954455133891372
-0.10630219466512678 4.1889694609248149 -0.61815979949798561
-0.70129873102675955 3.8310024255039679 1.1606233123765368
-0.71177549955715391 3.7311781571889142 1.6429627138229697
-0.53620175951967897 3.9256907390005118 1.6139108388071106
-0.52756263869832432 4.0355866500022737 1.1318386446184054
-0.85759876733125961 3.3570699929402079 2.1766328121672789
-0.95191128425443483 3.0229078072384183 2.2043337029103904
-0.96291029657264859 2.9424116564917373 2.7207370903569017
-0.87165339922639484 3.2605408932408904 2.6932449412512405
-0.76289309975865094 3.4084859681441029 3.1831375391573342
-0.78473585150079839 3.3140055658260485 3.6976828174359939
-0.62556714088676757 3.4782948981702257 3.6658257461859174
-0.59668162326279051 3.5782473482038215 3.1542056907189822
-0.9079484867352523 3.0146132010106816 4.2489220049185885
-0.97877516822386057 2.7292401588209469 4.2961199859084198
-0.96282792095265635 2.7003586218165379 4.8072620023929389
-0.9012265275549145 2.9753690788922627 4.7469730758584694
-0.79368755483400311 3.1716216961220818 5.1419392237292483
-0.7640732414177529 3.173072832069352 5.5314421760673644
-0.65598465084641533 3.309214671419924 5.4778161012955646
-0.66444944213340706 3.3240186141705079 5.0893952270760057
-0.75567772532494237 2.9934702012564385 5.9504056142542527
-0.78125900160708939 2.7566978813846412 6.0631502766868222
-0.63598012726376874 2.8547824672924844 6.2581379872630967
-0.63371873578313798 3.0565988983085459 6.1176756877998137
-0.38281869151320919 2.7207418777599446 6.7817304624400752
-0.038879408797416824 2.8874471084943716 6.7675135311347043
-0.08743201501286979 2.9593943967705334 6.4749944042063809
-0.40231830710825095 2.8240400252730002 6.4982535377464323
0.34432346657527096 2.9531279576822014 7.1321426807067603
0.35176605704647268 2.9569766601971583 7.6439445561442234
0.79212791071409561 2.9948634502093463 7.6601185716112266
0.7644193649501364 2.9694469071063012 7.136183414040711
-0.043751476497026626 2.8513490759656914 8.1803239137265766
-0.3857801188208056 2.6701164924080922 8.1803859606146609
-0.39402323709564779 2.6629756315712663 8.7268808105802904
-0.044735248112869788 2.8451904144676736 8.7331251147247926
0.091675820669089789 3.1150317541514752 6.171600167563267
-0.02069627489280693 3.2342527879223115 6.0096009669750883
0.13254396182791711 3.2250137725432388 5.8043445965693756
0.28617566106590953 3.0987567955768607 5.938114572917824
-0.29499088108358185 3.3306787527013988 5.950535779285282
-0.46738500829639196 3.2901591223685993 5.992395107803091
-0.48185928382084114 3.3656489948230628 5.7724472719536939
-0.31538680771849859 3.3984735029582254 5.7310366828222223
0.37365498007786513 2.9409121973913179 9.3121606137684498
0.38350442878305574 2.9109795074194089 9.8654026995709998
0.83999550924674948 2.9474086409162101 9.8950943061448591
0.83056383796440547 2.9857254502356909 9.3422826747347738
-0.016992285787792542 2.7730720673883149 10.392284484196091
-0.3711098816787391 2.6080507709200207 10.361327436659014
-0.34119203051496988 2.5680912689029332 10.892338803528485
0.0056586189821496401 2.7201610446284561 10.937483828229249
0.42202135572558896 2.7217624335791206 11.514989441295535
0.47489775125781819 2.6149850436901199 12.041208103173521
0.82235902520927107 2.6434298520290977 12.043658486761149
0.82692841182744103 2.7456109213851474 11.520881826680492
0.11155009952994986 4.1396359245626018 -0.40375468370282686
0.13736108369484057 4.1516297752232418 -0.12335929639587101
0.33761811145686954 3.9142454581169539 -0.12979832219996787
0.27749918737057278 3.9256548691340214 -0.41168222793308334
-0.073724024250761203 4.2620919711044518 0.238009157535536
-0.30478345083560304 4.2878362187911776 0.26084895032133937
-0.3096094178169731 4.2283670236357329 0.66278652820740447
-0.071369316423141663 4.2080837188897426 0.64235677135316682
0.17093548765988484 4.0020762317948959 1.0846172262744873
0.16252368342078774 3.9046831451244528 1.5669712147187989
0.39477465253081639 3.6967250121332356 1.5835146072232578
0.40343239282630367 3.779059818844035 1.0930414010977851
-0.099977456254110836 3.8989655857944636 2.0763476372459033
-0.33805909901804904 3.902392679613341 2.0937453626659708
-0.36175950151228214 3.7814245908199355 2.6120402976365482
-0.12654417480485536 3.7803998711840539 2.5980434876503349
0.076318418012742292 3.5802311680294814 3.1326008130301846
0.031988854523210132 3.4945330612906553 3.642602065922913
0.25646613692586251 3.3364319268204068 3.6718157734281487
0.30300655787200292 3.4100368426778971 3.1620068393628769
-0.23811421141732453 3.5028303660558562 4.1277011759992739
-0.45784515054878416 3.4899999439664695 4.1402831004799019
-0.48028341371677319 3.4399667695954359 4.614287340880141
-0.26846315712783164 3.4601426505044879 4.5942402946941208
-0.0829788508834014 3.4001464363716942 5.0084721877895699
-0.10886940684816082 3.4007507103683632 5.3735313480446312
0.063803319807731573 3.3226323820392434 5.3901629377824269
0.11880852169341717 3.2966400452155651 5.0270235631436817
0.58930950387825976 0.40895935217602619 -0.39436358706010749
0.72083619339704186 0.37058301169241331 -0.077884022379470508
0.79285937961979402 0.7960427818259127 -0.089055404590724169
0.65192042436493514 0.82965862322987427 -0.40688240377821988
0.6968780893621962 -0.033268969838152668 0.32494892444824774
0.54885231942573787 -0.34601732229499726 0.34681727508691523
0.57888703132595687 -0.35372834737041936 0.78135520738558029
0.73749472438692887 -0.042454814731926971 0.7667375480618801
0.87211061051358996 0.33900096896254245 1.2525157338397188
0.85244623591679014 0.35365224006714302 1.7735681097063649
0.95211496401152163 0.77081254777575792 1.7736786070278154
0.96497005896146515 0.76144329241710795 1.2489107554829577
0.67254500317662469 0.035220979723889587 2.291538115585209
0.49120532349062496 -0.25956895666582852 2.2731796491734331
0.44212253290846432 -0.20761993458097303 2.7787468870372085
0.62775025690748709 0.08245891415697372 2.8151023231147341
0.7420806419086865 0.46753569325280459 3.3778067995534982
0.72072296203919228 0.50227183640948869 3.8980104417947699
0.83395435261333228 0.86637276998885704 3.9158594390947363
0.85224689703035039 0.85005264759215804 3.3963758516346414
0.54748182087843411 0.20517633894574952 4.2693841449560157
0.34763146435451425 -0.084185729205502352 4.1681913279599589
0.31971395723673263 -0.083865409985427575 4.5804802815751851
0.52154605790236652 0.18457291713474383 4.6885745807410038
0.6647342629067321 0.37187757500681634 5.2326737779245294
0.59749425755815933 0.3018402973747582 5.6860649825513416
0.84794991566483213 0.50532512662707751 5.8614875476792676
0.88047749087773608 0.58713122134469065 5.4098750960892197
0.6693988414870643 2.246969700519164 -0.4277342145914389
0.80666350188938374 2.232608358396321 -0.11302056532501659
0.74129285334773121 2.7161780012829899 -0.12275819405979575
0.61611434889829197 2.7274656481906039 -0.43367396791531809
0.93782003656102397 1.7228383390381299 0.28608926519694305
0.93334975095533701 1.2382867427564368 0.29595902410026548
0.99383036954459159 1.2258024411891288 0.745568516852534
0.9994538287021828 1.7086862385547463 0.73290235675652415
0.98854654178545565 2.1806852944638022 1.20313912039573
0.98584651217214192 2.1626430601078197 1.7200478765201634
0.90265348428227987 2.6162032440482341 1.6919240474720016
0.90603045706521501 2.6486322368436057 1.1782845202192354
0.99858772130102602 1.6898400520782604 2.2836639538039787
0.98384481760432685 1.2348382913646776 2.305447323167837
0.94940480891760115 1.2487860971955964 2.8508186631930865
0.96593626580195768 1.6881517858486466 2.8305057770012629
0.89996017371415993 2.1112807259114548 3.3566216851472661
0.87926337235165741 2.1153296498416725 3.8886658080269743
0.78755480848486092 2.4849264605613444 3.869450566093219
0.81482666482178667 2.5083220144163021 3.3272721656360087
0.92699699217094211 1.7321349877728811 4.3108371802371312
0.91088780669294456 1.2815644072337216 4.32077768061251
0.99640573847760872 1.3272831335701807 4.6748900265974207
1.0113537960610295 1.7500098626254594 4.6636795193680065
1.107447932689168 0.87443516255004616 5.2647480133594931
1.3368997887889023 1.0274878907757485 5.4731876983743764
1.3237394455698301 1.2003070376560518 5.2778155248998821
1.1189825524778489 1.0880351151171146 5.0388095137044422
1.6725706850696906 1.1400282532430113 5.9290743219221103
1.8276161647366249 1.1304140985971087 6.2591686585982611
2.0360636294757373 1.3741354288164946 6.2778105361672534
1.8368685574342956 1.355923338878253 5.9706139437145413
1.6222437721737983 0.90145608007833644 6.5123141681052852
1.1788456127559539 0.66507232468066368 6.396441918156639
1.2036842957495477 0.65384100309245119 6.7987258481079555
1.7068989150989977 0.87456165938298158 6.8850137568586645
1.5580582826212943 1.5500221224103179 5.4175321539670014
1.5731208638215077 1.8059721558605242 5.4026447527052444
1.749680301879694 1.8425868332584425 5.6390659010523594
1.7350842971690446 1.5940358583871597 5.6546510094239579
1.3630457906424036 2.0714272322800538 5.2361165852614731
1.1557217102451454 2.0865995185966115 5.0041966104489033
1.1506220868152985 2.3415788440089513 5.217415541017612
1.3844494981696787 2.2825137987635937 5.4142695265351577
2.2454829856751548 1.0140380813181851 7.3293845535768325
2.2866358231494313 0.9664020536361736 7.8042576407292286
2.8213757000724446 1.0899525753983188 7.8216661204380742
2.7607005900523442 1.1501646945601389 7.3643109153167892
1.7854791125880836 0.81098862962557849 8.2933562276352326
1.2799276595583107 0.67747114833252631 8.2635299158556297
1.2787466566173902 0.68519055983834676 8.8167247840000584
1.7885030609326937 0.81371290300374577 8.8392085922823682
2.2965841172099948 0.96393014860339832 9.3977748329456627
2.2706228608359389 1.0135328453828552 9.9363749322186568
2.7548095875855294 1.1361822914106627 9.8751488575349065
2.8135548518102009 1.0822942121191428 9.3619075374361227
1.7512459060981445 0.91492940552494384 10.430133148934125
1.242125506652249 0.73882590767938228 10.434001996198525
1.2000222345846094 0.78933889145042935 10.942955607109223
1.6788117795847881 0.97309529560409391 10.899482908108519
1.9653168832145207 1.2200182683893481 11.299836081416503
1.8922444920668549 1.2674065881231182 11.760122832413202
2.1427100001909922 1.4915783161258378 11.736590782662812
2.2258756527309758 1.4535048931977401 11.300859281539337
1.5575503059589424 1.1570258451596576 12.254976155789169
1.1513614438387432 1.0610734345102724 12.345536268494198
1.2980452421260267 1.1296655847223505 12.735284274038738
1.6869154383348224 1.2085289740215948 12.676444083857408
0.67282507849890261 2.2036224042330201 13.084314861319559
0.65077987651554015 2.1470686964792054 13.334296182079798
0.80417313442369909 2.3042871891946333 13.500955907850136
0.84345707262011016 2.3729804882343788 13.255546931061339
0.61282021051560398 1.8774158201874143 13.554182375947368
0.6255907245082053 1.6628324050843271 13.56948606577741
0.7356226644926932 1.6660062376717388 13.832659920381932
0.7194533938544827 1.8708368337789703 13.816780134608321
0.63513578149099104 1.3729370144945099 13.07051623188385
0.64805317374567106 1.4207005755481132 13.346600348288359
0.79449430003071586 1.2834281649148263 13.504178975445196
0.78645874933482907 1.2205322319260452 13.232498159330023
0.56385985347914724 3.5617801673215106 0.23125644456350183
0.71634411460287895 3.1574567118528512 0.2442487131758618
0.76149975177101736 3.1273734639273059 0.67416163791635597
0.59775082193306528 3.5228621960421584 0.65206466424243736
0.57937497103965563 3.3263478907878503 2.141038641552814
0.75147260000197036 2.9809817708192541 2.1932746900091251
0.71840546345529743 2.9215169753525041 2.7366352594066865
0.54674043242215975 3.2454521216433148 2.6776294937726064
0.42098493524525471 3.0760431647260238 4.2049164769275711
0.61452569740436136 2.7971069364785439 4.2823162486478568
0.56932638585282347 2.8485073237639922 4.7301018084372926
0.3699555430550252 3.0895836321174364 4.6604581698252217
0.68755175919764278 2.7575167671895198 5.2529152487818855
0.59198280945044646 2.8977801528130902 5.7202643751041409
0.8476963831147375 2.7780343455784862 5.8493565322483763
0.90582237797292764 2.6126899878016578 5.3909986438274995
1.7146596819860467 2.3225173807595083 5.8630005255515716
1.8579049976398956 2.4109349925074524 6.1915505742058263
2.0612959783615965 2.2071669536221967 6.2274557630802452
1.8709976764551599 2.1470826226583934 5.9212151858351216
1.6319585334357711 2.6479941177831239 6.4465437423255008
1.1725817753985919 2.7839083965036928 6.3534054719295998
1.1894467081503157 2.8652989402567148 6.7536473548235012
1.706945409592487 2.7475597476710965 6.8236196273640184
2.2456569460034075 2.7405472632367771 7.2818665222899064
