5.0260416666666661 1.2708333333333335 4.4322916666666661
4.9635416666666661 1.2677083333333334 4.4479166666666661
4.9375 1.3812500000000001 3.375
4.9166666666666661 1.3677083333333333 3.364583333333333
4.9375 1.409375 3.34375
4.9583333333333339 1.3885416666666668 3.385416666666667
4.9375 1.359375 3.40625
5.0 1.3125 3.5
4.96875 1.325 3.46875
5.03125 1.328125 3.484375
5.03125 1.3 3.53125
4.96875 1.296875 3.515625
5.010416666666667 1.3708333333333333 3.4270833333333335
4.9739583333333339 1.3541666666666665 3.432291666666667
5.0364583333333339 1.3572916666666668 3.447916666666667
5.0364583333333339 1.3885416666666668 3.416666666666667
4.994791666666667 1.3833333333333333 3.4114583333333335
5.0 1.3125 4.5
4.96875 1.296875 4.484375
5.03125 1.3 4.46875
5.03125 1.328125 4.515625
4.96875 1.325 4.53125
4.9375 1.3812500000000001 4.625
4.9375 1.359375 4.59375
4.9583333333333339 1.3885416666666668 4.6145833333333339
4.9375 1.409375 4.65625
4.9166666666666661 1.3677083333333333 4.6354166666666661
5.010416666666667 1.3708333333333333 4.572916666666667
4.9739583333333339 1.3541666666666665 4.5677083333333339
5.0364583333333339 1.3572916666666668 4.5520833333333339
5.0364583333333339 1.3885416666666668 4.5833333333333339
4.994791666666667 1.3833333333333333 4.588541666666667
4.9375 1.5 3.2562500000000001
4.9166666666666661 1.4895833333333335 3.2427083333333333
4.9375 1.53125 3.234375
4.9583333333333339 1.5104166666666665 3.2635416666666668
4.9375 1.46875 3.2843749999999998
5.010416666666667 1.4270833333333333 3.3645833333333335
4.9739583333333339 1.4322916666666665 3.338541666666667
5.0364583333333339 1.4479166666666665 3.354166666666667
5.0364583333333339 1.4166666666666665 3.385416666666667
4.994791666666667 1.4114583333333333 3.3802083333333335
5.010416666666667 1.4895833333333333 3.3020833333333335
4.9739583333333339 1.4635416666666665 3.307291666666667
5.0364583333333339 1.4791666666666665 3.322916666666667
5.0364583333333339 1.5104166666666665 3.291666666666667
4.994791666666667 1.5052083333333333 3.2864583333333335
5.010416666666667 1.4270833333333333 4.635416666666667
4.994791666666667 1.4114583333333333 4.619791666666667
5.0364583333333339 1.4166666666666665 4.6145833333333339
5.0364583333333339 1.4479166666666665 4.6458333333333339
4.9739583333333339 1.4322916666666665 4.6614583333333339
4.9375 1.5 4.7437500000000004
4.9375 1.46875 4.7156250000000002
4.9583333333333339 1.5104166666666665 4.7364583333333332
4.9375 1.53125 4.765625
4.9166666666666661 1.4895833333333335 4.7572916666666671
5.010416666666667 1.4895833333333333 4.697916666666667
4.9739583333333339 1.4635416666666665 4.6927083333333339
5.0364583333333339 1.4791666666666665 4.6770833333333339
5.0364583333333339 1.5104166666666665 4.7083333333333339
4.994791666666667 1.5052083333333333 4.713541666666667
5.010416666666667 1.5520833333333333 3.2458333333333336
4.9739583333333339 1.5572916666666665 3.229166666666667
5.0364583333333339 1.5729166666666665 3.2322916666666668
5.0364583333333339 1.5416666666666665 3.2635416666666668
4.994791666666667 1.5364583333333333 3.2583333333333337
5.0 1.625 3.1875
4.96875 1.59375 3.2000000000000002
5.03125 1.609375 3.203125
5.03125 1.65625 3.1749999999999998
4.96875 1.640625 3.171875
5.010416666666667 1.5520833333333333 4.7541666666666664
4.994791666666667 1.5364583333333333 4.7416666666666671
5.0364583333333339 1.5416666666666665 4.7364583333333332
5.0364583333333339 1.5729166666666665 4.7677083333333332
4.9739583333333339 1.5572916666666665 4.770833333333333
5.0 1.625 4.8125
4.96875 1.59375 4.7999999999999998
5.03125 1.609375 4.796875
5.03125 1.65625 4.8250000000000002
4.96875 1.640625 4.828125
4.989583333333333 1.6979166666666667 3.1291666666666664
4.9635416666666661 1.7083333333333335 3.1114583333333332
5.005208333333333 1.7135416666666667 3.1166666666666663
5.0260416666666661 1.6927083333333335 3.145833333333333
4.9635416666666661 1.6770833333333335 3.1427083333333332
4.989583333333333 1.7682291666666667 3.0869791666666666
4.9635416666666661 1.7434895833333335 3.0903645833333333
5.005208333333333 1.7486979166666667 3.0955729166666668
5.0260416666666661 1.7903645833333335 3.087239583333333
4.9635416666666661 1.7903645833333335 3.0747395833333333
4.989583333333333 1.6979166666666667 4.8708333333333336
4.9635416666666661 1.6770833333333335 4.8572916666666668
5.0260416666666661 1.6927083333333335 4.854166666666667
5.005208333333333 1.7135416666666667 4.8833333333333329
4.9635416666666661 1.7083333333333335 4.8885416666666668
4.989583333333333 1.7682291666666667 4.9130208333333325
4.9635416666666661 1.7434895833333335 4.9096354166666663
5.005208333333333 1.7486979166666667 4.9044270833333332
5.0260416666666661 1.7903645833333335 4.9127604166666661
4.9635416666666661 1.7903645833333335 4.9252604166666663
5.0 1.875 3.0687500000000001
4.96875 1.84375 3.0656249999999998
5.03125 1.84375 3.078125
5.03125 1.90625 3.0656249999999998
4.96875 1.90625 3.0656249999999998
5.0 1.875 4.9312500000000004
4.96875 1.84375 4.9343750000000002
5.03125 1.84375 4.921875
5.03125 1.90625 4.9343750000000002
4.96875 1.90625 4.9343750000000002
5.0 2.0 3.0625
4.96875 1.96875 3.0625
5.03125 1.96875 3.0625
5.03125 2.03125 3.0625
4.96875 2.03125 3.0625
5.0 2.0 4.9375
4.96875 1.96875 4.9375
5.03125 1.96875 4.9375
5.03125 2.03125 4.9375
4.96875 2.03125 4.9375
5.0 2.125 3.0625
4.96875 2.09375 3.0625
5.03125 2.09375 3.0625
5.03125 2.15625 3.0625
4.96875 2.15625 3.0625
5.0 2.125 4.9375
4.96875 2.09375 4.9375
5.03125 2.09375 4.9375
5.03125 2.15625 4.9375
4.96875 2.15625 4.9375
5.0 2.25 3.0625
4.96875 2.21875 3.0625
5.03125 2.21875 3.0625
5.03125 2.28125 3.0625
4.96875 2.28125 3.0625
5.0 2.25 4.9375
4.96875 2.21875 4.9375
5.03125 2.21875 4.9375
5.03125 2.28125 4.9375
4.96875 2.28125 4.9375
5.0 2.375 3.0625
4.96875 2.34375 3.0625
5.03125 2.34375 3.0625
5.03125 2.40625 3.0625
4.96875 2.40625 3.0625
5.0 2.375 4.9375
4.96875 2.34375 4.9375
5.03125 2.34375 4.9375
5.03125 2.40625 4.9375
4.96875 2.40625 4.9375
5.0 2.5 3.0625
4.96875 2.46875 3.0625
5.03125 2.46875 3.0625
5.03125 2.53125 3.0625
4.96875 2.53125 3.0625
5.0 2.5 4.9375
4.96875 2.46875 4.9375
5.03125 2.46875 4.9375
5.03125 2.53125 4.9375
4.96875 2.53125 4.9375
5.0 2.625 3.0625
4.96875 2.59375 3.0625
5.03125 2.59375 3.0625
5.03125 2.65625 3.0625
4.96875 2.65625 3.0625
5.0 2.625 4.9375
4.96875 2.59375 4.9375
5.03125 2.59375 4.9375
5.03125 2.65625 4.9375
4.96875 2.65625 4.9375
5.0 2.7421875 3.0765625000000001
4.96875 2.71484375 3.0695312499999998
5.03125 2.71484375 3.0695312499999998
5.03125 2.77734375 3.08203125
4.96875 2.76171875 3.0851562499999998
5.0 2.7421875 4.9234375000000004
4.96875 2.71484375 4.9304687500000002
5.03125 2.71484375 4.9304687500000002
5.03125 2.77734375 4.91796875
4.96875 2.76171875 4.9148437500000002
4.989583333333333 2.8229166666666665 3.1208333333333336
4.9635416666666661 2.802083333333333 3.1072916666666668
5.0260416666666661 2.817708333333333 3.104166666666667
5.005208333333333 2.8385416666666665 3.1333333333333337
4.9635416666666661 2.833333333333333 3.1385416666666668
4.989583333333333 2.8932291666666665 3.1692708333333335
4.9635416666666661 2.868489583333333 3.162760416666667
5.005208333333333 2.8736979166666665 3.1575520833333335
5.0260416666666661 2.915364583333333 3.1658854166666668
4.9635416666666661 2.915364583333333 3.1908854166666667
4.989583333333333 2.8229166666666665 4.8791666666666664
4.9635416666666661 2.833333333333333 4.8614583333333332
5.005208333333333 2.8385416666666665 4.8666666666666671
5.0260416666666661 2.817708333333333 4.895833333333333
4.9635416666666661 2.802083333333333 4.8927083333333332
4.989583333333333 2.8932291666666665 4.830729166666667
4.9635416666666661 2.868489583333333 4.8372395833333339
5.005208333333333 2.8736979166666665 4.842447916666667
5.0260416666666661 2.915364583333333 4.8341145833333332
4.9635416666666661 2.915364583333333 4.8091145833333329
4.9375 3.0 3.25
4.9375 2.96875 3.2312500000000002
4.9583333333333339 3.010416666666667 3.239583333333333
4.9375 3.03125 3.2687499999999998
4.9166666666666661 2.989583333333333 3.260416666666667
5.010416666666667 2.9895833333333335 3.2041666666666666
4.9739583333333339 2.963541666666667 3.208333333333333
5.0364583333333339 2.963541666666667 3.1833333333333336
5.0364583333333339 3.026041666666667 3.208333333333333
4.994791666666667 3.0052083333333335 3.2166666666666668
4.9375 3.0 4.75
4.9166666666666661 2.989583333333333 4.7395833333333339
4.9375 3.03125 4.7312500000000002
4.9583333333333339 3.010416666666667 4.7604166666666661
4.9375 2.96875 4.7687499999999998
5.010416666666667 2.9895833333333335 4.7958333333333334
4.9739583333333339 2.963541666666667 4.7916666666666661
5.0364583333333339 2.963541666666667 4.8166666666666664
5.0364583333333339 3.026041666666667 4.7916666666666661
4.994791666666667 3.0052083333333335 4.7833333333333332
5.0 3.0625 3.25
4.9895833333333339 3.041666666666667 3.239583333333333
5.03125 3.0625 3.2312500000000002
5.0104166666666661 3.083333333333333 3.260416666666667
4.96875 3.0625 3.2687499999999998
4.981770833333333 3.1354166666666665 3.2942708333333335
4.9596354166666661 3.098958333333333 3.2908854166666668
5.001302083333333 3.1197916666666665 3.2825520833333335
5.0065104166666661 3.161458333333333 3.287760416666667
4.9596354166666661 3.161458333333333 3.3158854166666667
5.0 3.0625 4.75
4.96875 3.0625 4.7312500000000002
5.0104166666666661 3.083333333333333 4.7395833333333339
5.03125 3.0625 4.7687499999999998
4.9895833333333339 3.041666666666667 4.7604166666666661
4.981770833333333 3.1354166666666665 4.7057291666666661
4.9596354166666661 3.098958333333333 4.7091145833333332
5.001302083333333 3.1197916666666665 4.7174479166666661
5.0065104166666661 3.161458333333333 4.712239583333333
4.9596354166666661 3.161458333333333 4.6841145833333329
4.9375 3.25 3.3812500000000001
4.9375 3.21875 3.359375
4.9583333333333339 3.260416666666667 3.3677083333333333
4.9375 3.28125 3.4093749999999998
4.9166666666666661 3.239583333333333 3.3885416666666668
5.002604166666667 3.2395833333333335 3.3213541666666666
4.9700520833333339 3.213541666666667 3.329427083333333
5.0169270833333339 3.213541666666667 3.3013020833333333
5.0325520833333339 3.276041666666667 3.3169270833333333
4.990885416666667 3.2552083333333335 3.3377604166666668
4.9375 3.25 4.6187500000000004
4.9166666666666661 3.239583333333333 4.6114583333333332
4.9375 3.28125 4.5906250000000002
4.9583333333333339 3.260416666666667 4.6322916666666671
4.9375 3.21875 4.640625
5.002604166666667 3.2395833333333335 4.6786458333333334
4.9700520833333339 3.213541666666667 4.6705729166666661
5.0169270833333339 3.213541666666667 4.6986979166666671
5.0325520833333339 3.276041666666667 4.6830729166666671
4.990885416666667 3.2552083333333335 4.6622395833333332
5.0 3.3125 3.375
4.9895833333333339 3.291666666666667 3.364583333333333
5.03125 3.3125 3.34375
5.0104166666666661 3.333333333333333 3.385416666666667
4.96875 3.3125 3.40625
4.9375 3.375 3.5
4.9375 3.34375 3.46875
4.9583333333333339 3.385416666666667 3.489583333333333
4.9375 3.40625 3.53125
4.9166666666666661 3.364583333333333 3.510416666666667
4.9937499999999995 3.375 3.4375
4.9656249999999993 3.34375 3.4375
5.0072916666666663 3.364583333333333 3.416666666666667
5.015625 3.40625 3.4375
4.9864583333333332 3.385416666666667 3.458333333333333
4.9375 3.375 4.5
4.9166666666666661 3.364583333333333 4.4895833333333339
4.9375 3.40625 4.46875
4.9583333333333339 3.385416666666667 4.5104166666666661
4.9375 3.34375 4.53125
5.0 3.3125 4.625
4.96875 3.3125 4.59375
5.0104166666666661 3.333333333333333 4.6145833333333339
5.03125 3.3125 4.65625
4.9895833333333339 3.291666666666667 4.6354166666666661
4.9937499999999995 3.375 4.5625
4.9656249999999993 3.34375 4.5625
5.0072916666666663 3.364583333333333 4.5833333333333339
5.015625 3.40625 4.5625
4.9864583333333332 3.385416666666667 4.5416666666666661
4.9937499999999995 3.4375 3.5
4.9864583333333332 3.416666666666667 3.489583333333333
5.015625 3.4375 3.46875
5.0072916666666663 3.458333333333333 3.510416666666667
4.9656249999999993 3.4375 3.53125
4.9463541666666675 3.4973958333333335 3.6354166666666665
4.9419270833333337 3.467447916666667 3.598958333333333
4.9627604166666668 3.5091145833333335 3.6197916666666665
4.9544270833333339 3.529947916666667 3.661458333333333
4.9263020833333337 3.483072916666667 3.661458333333333
4.9937499999999995 3.5 3.5625
4.9656249999999993 3.46875 3.5625
5.0072916666666663 3.489583333333333 3.541666666666667
5.015625 3.53125 3.5625
4.9864583333333332 3.510416666666667 3.583333333333333
4.9281249999999996 3.515625 3.75
4.9171874999999998 3.4921875 3.71875
4.9453125 3.5390625 3.71875
4.9328124999999998 3.5390625 3.78125
4.9171874999999998 3.4921875 3.78125
4.9130208333333334 3.5182291666666665 3.8645833333333335
4.9096354166666671 3.493489583333333 3.838541666666667
4.9252604166666671 3.540364583333333 3.838541666666667
4.9127604166666661 3.540364583333333 3.901041666666667
4.9044270833333332 3.4986979166666665 3.8802083333333335
4.9130208333333334 3.5182291666666665 4.135416666666667
4.9044270833333332 3.4986979166666665 4.119791666666667
4.9127604166666661 3.540364583333333 4.0989583333333339
4.9252604166666671 3.540364583333333 4.1614583333333339
4.9096354166666671 3.493489583333333 4.1614583333333339
4.9281249999999996 3.515625 4.25
4.9171874999999998 3.4921875 4.21875
4.9328124999999998 3.5390625 4.21875
4.9453125 3.5390625 4.28125
4.9171874999999998 3.4921875 4.28125
4.9463541666666666 3.4973958333333335 4.364583333333333
4.9263020833333329 3.483072916666667 4.3385416666666661
4.9544270833333339 3.529947916666667 4.3385416666666661
4.9627604166666668 3.5091145833333335 4.380208333333333
4.9419270833333329 3.467447916666667 4.4010416666666661
4.9937499999999995 3.4375 4.5
4.9656249999999993 3.4375 4.46875
5.0072916666666663 3.458333333333333 4.4895833333333339
5.015625 3.4375 4.53125
4.9864583333333332 3.416666666666667 4.5104166666666661
4.9937499999999995 3.5 4.4375
4.9656249999999993 3.46875 4.4375
5.0072916666666663 3.489583333333333 4.4583333333333339
5.015625 3.53125 4.4375
4.9864583333333332 3.510416666666667 4.4166666666666661
5.0 3.5625 3.625
4.9895833333333339 3.541666666666667 3.614583333333333
5.0187499999999998 3.5625 3.59375
5.0104166666666661 3.583333333333333 3.635416666666667
4.9812500000000002 3.5625 3.65625
4.9604166666666671 3.6145833333333335 3.7604166666666665
4.9614583333333337 3.588541666666667 3.723958333333333
4.9697916666666675 3.6302083333333335 3.7447916666666665
4.9614583333333337 3.651041666666667 3.786458333333333
4.9489583333333336 3.588541666666667 3.786458333333333
5.0 3.625 3.6875
4.9812500000000002 3.59375 3.6875
5.0104166666666661 3.614583333333333 3.666666666666667
5.0187499999999998 3.65625 3.6875
4.9895833333333339 3.635416666666667 3.708333333333333
4.9375 3.625 3.875
4.9375 3.59375 3.84375
4.9500000000000002 3.65625 3.84375
4.9375 3.65625 3.90625
4.9249999999999998 3.59375 3.90625
4.9249999999999998 3.625 4.0
4.9187499999999993 3.59375 3.96875
4.9312500000000004 3.65625 3.96875
4.9312500000000004 3.65625 4.03125
4.9187499999999993 3.59375 4.03125
4.9375 3.625 4.125
4.9249999999999998 3.59375 4.09375
4.9375 3.65625 4.09375
4.9500000000000002 3.65625 4.15625
4.9375 3.59375 4.15625
4.9604166666666671 3.6145833333333335 4.239583333333333
4.9489583333333336 3.588541666666667 4.2135416666666661
4.9614583333333337 3.651041666666667 4.2135416666666661
4.9697916666666675 3.6302083333333335 4.255208333333333
4.9614583333333337 3.588541666666667 4.2760416666666661
5.0 3.5625 4.375
4.9812500000000002 3.5625 4.34375
5.0104166666666661 3.583333333333333 4.3645833333333339
5.0187499999999998 3.5625 4.40625
4.9895833333333339 3.541666666666667 4.3854166666666661
5.0 3.625 4.3125
4.9812500000000002 3.59375 4.3125
5.0104166666666661 3.614583333333333 4.3333333333333339
5.0187499999999998 3.65625 4.3125
4.9895833333333339 3.635416666666667 4.2916666666666661
5.0 3.6875 3.75
4.9895833333333339 3.666666666666667 3.739583333333333
5.0187499999999998 3.6875 3.71875
5.0104166666666661 3.708333333333333 3.760416666666667
4.9812500000000002 3.6875 3.78125
4.9604166666666671 3.7395833333333335 3.8854166666666665
4.9614583333333337 3.713541666666667 3.848958333333333
4.9697916666666675 3.7552083333333335 3.8697916666666665
4.9614583333333337 3.776041666666667 3.911458333333333
4.9489583333333336 3.713541666666667 3.911458333333333
5.0 3.75 3.8125
4.9812500000000002 3.71875 3.8125
5.0104166666666661 3.739583333333333 3.791666666666667
5.0187499999999998 3.78125 3.8125
4.9895833333333339 3.760416666666667 3.833333333333333
4.9500000000000002 3.75 4.0
4.9437499999999996 3.71875 3.96875
4.9562500000000007 3.78125 3.96875
4.9562500000000007 3.78125 4.03125
4.9437499999999996 3.71875 4.03125
4.9604166666666671 3.7395833333333335 4.114583333333333
4.9489583333333336 3.713541666666667 4.0885416666666661
4.9614583333333337 3.776041666666667 4.0885416666666661
4.9697916666666675 3.7552083333333335 4.130208333333333
4.9614583333333337 3.713541666666667 4.1510416666666661
5.0 3.6875 4.25
4.9812500000000002 3.6875 4.21875
5.0104166666666661 3.708333333333333 4.2395833333333339
5.0187499999999998 3.6875 4.28125
4.9895833333333339 3.666666666666667 4.2604166666666661
5.0 3.75 4.1875
4.9812500000000002 3.71875 4.1875
5.0104166666666661 3.739583333333333 4.2083333333333339
5.0187499999999998 3.78125 4.1875
4.9895833333333339 3.760416666666667 4.1666666666666661
5.0 3.8125 3.875
4.9895833333333339 3.791666666666667 3.864583333333333
5.0187499999999998 3.8125 3.84375
5.0104166666666661 3.833333333333333 3.885416666666667
4.9812500000000002 3.8125 3.90625
4.9656250000000002 3.875 4.0
4.9640625000000007 3.84375 3.96875
4.9671874999999996 3.90625 3.984375
4.9671874999999996 3.90625 4.015625
4.9640625000000007 3.84375 4.03125
4.9958333333333336 3.8854166666666665 3.9270833333333335
4.979166666666667 3.848958333333333 3.932291666666667
5.0083333333333329 3.8697916666666665 3.9114583333333335
5.0135416666666668 3.911458333333333 3.916666666666667
4.9822916666666668 3.911458333333333 3.947916666666667
5.0 3.8125 4.125
4.9812500000000002 3.8125 4.09375
5.0104166666666661 3.833333333333333 4.1145833333333339
5.0187499999999998 3.8125 4.15625
4.9895833333333339 3.791666666666667 4.1354166666666661
4.9958333333333336 3.8854166666666665 4.072916666666667
4.979166666666667 3.848958333333333 4.0677083333333339
5.0083333333333329 3.8697916666666665 4.088541666666667
5.0135416666666668 3.911458333333333 4.0833333333333339
4.9822916666666668 3.911458333333333 4.0520833333333339
4.96875 4.0 4.0
4.96875 3.96875 3.984375
4.96875 4.03125 3.984375
4.96875 4.03125 4.015625
4.96875 3.96875 4.015625
5.0 4.0 3.9375
4.984375 3.96875 3.953125
5.015625 3.96875 3.921875
5.015625 4.03125 3.921875
4.984375 4.03125 3.953125
5.0 4.0 4.0625
4.984375 3.96875 4.046875
5.015625 3.96875 4.078125
5.015625 4.03125 4.078125
4.984375 4.03125 4.046875
4.9656250000000002 4.125 4.0
4.9671874999999996 4.09375 3.984375
4.9640625000000007 4.15625 3.96875
4.9640625000000007 4.15625 4.03125
4.9671874999999996 4.09375 4.015625
4.9958333333333336 4.114583333333333 3.9270833333333335
4.9822916666666668 4.0885416666666661 3.947916666666667
5.0135416666666668 4.0885416666666661 3.916666666666667
5.0083333333333329 4.130208333333333 3.9114583333333335
4.979166666666667 4.1510416666666661 3.932291666666667
4.9958333333333336 4.114583333333333 4.072916666666667
4.9822916666666668 4.0885416666666661 4.0520833333333339
5.0135416666666668 4.0885416666666661 4.0833333333333339
5.0083333333333329 4.130208333333333 4.088541666666667
4.979166666666667 4.1510416666666661 4.0677083333333339
4.9604166666666671 4.260416666666667 3.8854166666666665
4.9697916666666675 4.244791666666667 3.8697916666666665
4.9614583333333337 4.2864583333333339 3.848958333333333
4.9489583333333336 4.2864583333333339 3.911458333333333
4.9614583333333337 4.2239583333333339 3.911458333333333
5.0 4.1875 3.875
4.9895833333333339 4.2083333333333339 3.864583333333333
5.0187499999999998 4.1875 3.84375
5.0104166666666661 4.1666666666666661 3.885416666666667
4.9812500000000002 4.1875 3.90625
5.0 4.25 3.8125
4.9895833333333339 4.2395833333333339 3.833333333333333
5.0187499999999998 4.21875 3.8125
5.0104166666666661 4.2604166666666661 3.791666666666667
4.9812500000000002 4.28125 3.8125
4.9500000000000002 4.25 4.0
4.9562500000000007 4.21875 3.96875
4.9437499999999996 4.28125 3.96875
4.9437499999999996 4.28125 4.03125
4.9562500000000007 4.21875 4.03125
4.9604166666666671 4.260416666666667 4.114583333333333
4.9614583333333337 4.2239583333333339 4.0885416666666661
4.9489583333333336 4.2864583333333339 4.0885416666666661
4.9614583333333337 4.2864583333333339 4.1510416666666661
4.9697916666666675 4.244791666666667 4.130208333333333
5.0 4.1875 4.125
4.9812500000000002 4.1875 4.09375
5.0104166666666661 4.1666666666666661 4.1145833333333339
5.0187499999999998 4.1875 4.15625
4.9895833333333339 4.2083333333333339 4.1354166666666661
5.0 4.25 4.1875
4.9895833333333339 4.2395833333333339 4.1666666666666661
5.0187499999999998 4.21875 4.1875
5.0104166666666661 4.2604166666666661 4.2083333333333339
4.9812500000000002 4.28125 4.1875
4.9604166666666671 4.385416666666667 3.7604166666666665
4.9697916666666675 4.369791666666667 3.7447916666666665
4.9614583333333337 4.4114583333333339 3.723958333333333
4.9489583333333336 4.4114583333333339 3.786458333333333
4.9614583333333337 4.3489583333333339 3.786458333333333
5.0 4.3125 3.75
4.9895833333333339 4.3333333333333339 3.739583333333333
5.0187499999999998 4.3125 3.71875
5.0104166666666661 4.2916666666666661 3.760416666666667
4.9812500000000002 4.3125 3.78125
5.0 4.375 3.6875
4.9895833333333339 4.3645833333333339 3.708333333333333
5.0187499999999998 4.34375 3.6875
5.0104166666666661 4.3854166666666661 3.666666666666667
4.9812500000000002 4.40625 3.6875
4.9375 4.375 3.875
4.9500000000000002 4.34375 3.84375
4.9375 4.40625 3.84375
4.9249999999999998 4.40625 3.90625
4.9375 4.34375 3.90625
4.9249999999999998 4.375 4.0
4.9312500000000004 4.34375 3.96875
4.9187499999999993 4.40625 3.96875
4.9187499999999993 4.40625 4.03125
4.9312500000000004 4.34375 4.03125
4.9375 4.375 4.125
4.9375 4.34375 4.09375
4.9249999999999998 4.40625 4.09375
4.9375 4.40625 4.15625
4.9500000000000002 4.34375 4.15625
4.9604166666666671 4.385416666666667 4.239583333333333
4.9614583333333337 4.3489583333333339 4.2135416666666661
4.9489583333333336 4.4114583333333339 4.2135416666666661
4.9614583333333337 4.4114583333333339 4.2760416666666661
4.9697916666666675 4.369791666666667 4.255208333333333
5.0 4.3125 4.25
4.9812500000000002 4.3125 4.21875
5.0104166666666661 4.2916666666666661 4.2395833333333339
5.0187499999999998 4.3125 4.28125
4.9895833333333339 4.3333333333333339 4.2604166666666661
5.0 4.375 4.3125
4.9895833333333339 4.3645833333333339 4.2916666666666661
5.0187499999999998 4.34375 4.3125
5.0104166666666661 4.3854166666666661 4.3333333333333339
4.9812500000000002 4.40625 4.3125
4.9463541666666675 4.502604166666667 3.6354166666666665
4.9627604166666668 4.490885416666667 3.6197916666666665
4.9419270833333337 4.5325520833333339 3.598958333333333
4.9263020833333337 4.5169270833333339 3.661458333333333
4.9544270833333339 4.4700520833333339 3.661458333333333
5.0 4.4375 3.625
4.9895833333333339 4.4583333333333339 3.614583333333333
5.0187499999999998 4.4375 3.59375
5.0104166666666661 4.4166666666666661 3.635416666666667
4.9812500000000002 4.4375 3.65625
4.9937499999999995 4.5 3.5625
4.9864583333333332 4.4895833333333339 3.583333333333333
5.015625 4.46875 3.5625
5.0072916666666663 4.5104166666666661 3.541666666666667
4.9656249999999993 4.53125 3.5625
4.9281249999999996 4.484375 3.75
4.9453125 4.4609375 3.71875
4.9171874999999998 4.5078125 3.71875
4.9171874999999998 4.5078125 3.78125
4.9328124999999998 4.4609375 3.78125
4.9130208333333325 4.481770833333333 3.8645833333333335
4.9252604166666663 4.4596354166666661 3.838541666666667
4.9096354166666663 4.5065104166666661 3.838541666666667
4.9044270833333332 4.501302083333333 3.8802083333333335
4.9127604166666661 4.4596354166666661 3.901041666666667
4.9130208333333334 4.481770833333333 4.135416666666667
4.9127604166666661 4.4596354166666661 4.0989583333333339
4.9044270833333332 4.501302083333333 4.119791666666667
4.9096354166666671 4.5065104166666661 4.1614583333333339
4.9252604166666671 4.4596354166666661 4.1614583333333339
4.9281249999999996 4.484375 4.25
4.9328124999999998 4.4609375 4.21875
4.9171874999999998 4.5078125 4.21875
4.9171874999999998 4.5078125 4.28125
4.9453125 4.4609375 4.28125
4.9463541666666666 4.502604166666667 4.364583333333333
4.9544270833333339 4.4700520833333339 4.3385416666666661
4.9263020833333329 4.5169270833333339 4.3385416666666661
4.9419270833333329 4.5325520833333339 4.4010416666666661
4.9627604166666668 4.490885416666667 4.380208333333333
5.0 4.4375 4.375
4.9812500000000002 4.4375 4.34375
5.0104166666666661 4.4166666666666661 4.3645833333333339
5.0187499999999998 4.4375 4.40625
4.9895833333333339 4.4583333333333339 4.3854166666666661
4.9937499999999995 4.5 4.4375
4.9864583333333332 4.4895833333333339 4.4166666666666661
5.015625 4.46875 4.4375
5.0072916666666663 4.5104166666666661 4.4583333333333339
4.9656249999999993 4.53125 4.4375
4.9375 4.625 3.5
4.9583333333333339 4.6145833333333339 3.489583333333333
4.9375 4.65625 3.46875
4.9166666666666661 4.6354166666666661 3.510416666666667
4.9375 4.59375 3.53125
4.9937499999999995 4.5625 3.5
4.9864583333333332 4.5833333333333339 3.489583333333333
5.015625 4.5625 3.46875
5.0072916666666663 4.5416666666666661 3.510416666666667
4.9656249999999993 4.5625 3.53125
4.9937499999999995 4.625 3.4375
4.9864583333333332 4.6145833333333339 3.458333333333333
5.015625 4.59375 3.4375
5.0072916666666663 4.6354166666666661 3.416666666666667
4.9656249999999993 4.65625 3.4375
4.9375 4.625 4.5
4.9375 4.59375 4.46875
4.9166666666666661 4.6354166666666661 4.4895833333333339
4.9375 4.65625 4.53125
4.9583333333333339 4.6145833333333339 4.5104166666666661
4.9937499999999995 4.5625 4.5
4.9656249999999993 4.5625 4.46875
5.0072916666666663 4.5416666666666661 4.4895833333333339
5.015625 4.5625 4.53125
4.9864583333333332 4.5833333333333339 4.5104166666666661
4.9937499999999995 4.625 4.5625
4.9864583333333332 4.6145833333333339 4.5416666666666661
5.015625 4.59375 4.5625
5.0072916666666663 4.6354166666666661 4.5833333333333339
4.9656249999999993 4.65625 4.5625
4.9375 4.75 3.3812500000000001
4.9583333333333339 4.7395833333333339 3.3677083333333333
4.9375 4.78125 3.359375
4.9166666666666661 4.7604166666666661 3.3885416666666668
4.9375 4.71875 3.4093749999999998
5.0 4.6875 3.375
4.9895833333333339 4.7083333333333339 3.364583333333333
5.03125 4.6875 3.34375
5.0104166666666661 4.6666666666666661 3.385416666666667
4.96875 4.6875 3.40625
5.002604166666667 4.760416666666667 3.3213541666666666
4.990885416666667 4.744791666666667 3.3377604166666668
5.0325520833333339 4.7239583333333339 3.3169270833333333
5.0169270833333339 4.7864583333333339 3.3013020833333333
4.9700520833333339 4.7864583333333339 3.329427083333333
4.9375 4.75 4.6187500000000004
4.9375 4.71875 4.5906250000000002
4.9166666666666661 4.7604166666666661 4.6114583333333332
4.9375 4.78125 4.640625
4.9583333333333339 4.7395833333333339 4.6322916666666671
5.0 4.6875 4.625
4.96875 4.6875 4.59375
5.0104166666666661 4.6666666666666661 4.6145833333333339
5.03125 4.6875 4.65625
4.9895833333333339 4.7083333333333339 4.6354166666666661
5.002604166666667 4.760416666666667 4.6786458333333325
4.990885416666667 4.744791666666667 4.6622395833333332
5.0325520833333339 4.7239583333333339 4.6830729166666663
5.0169270833333339 4.7864583333333339 4.6986979166666663
4.9700520833333339 4.7864583333333339 4.6705729166666661
4.981770833333333 4.864583333333333 3.2942708333333335
4.9596354166666661 4.8385416666666661 3.3158854166666667
5.0065104166666661 4.8385416666666661 3.287760416666667
5.001302083333333 4.880208333333333 3.2825520833333335
4.9596354166666661 4.9010416666666661 3.2908854166666668
4.981770833333333 4.864583333333333 4.7057291666666661
4.9596354166666661 4.8385416666666661 4.6841145833333329
5.0065104166666661 4.8385416666666661 4.712239583333333
5.001302083333333 4.880208333333333 4.7174479166666661
4.9596354166666661 4.9010416666666661 4.7091145833333332
4.9375 5.0 3.25
4.9583333333333339 4.9895833333333339 3.239583333333333
4.9375 5.03125 3.2312500000000002
4.9166666666666661 5.0104166666666661 3.260416666666667
4.9375 4.96875 3.2687499999999998
5.0 4.9375 3.25
4.9895833333333339 4.9583333333333339 3.239583333333333
5.03125 4.9375 3.2312500000000002
5.0104166666666661 4.9166666666666661 3.260416666666667
4.96875 4.9375 3.2687499999999998
5.010416666666667 5.010416666666667 3.2041666666666666
4.994791666666667 4.994791666666667 3.2166666666666668
5.0364583333333339 4.9739583333333339 3.208333333333333
5.0364583333333339 5.0364583333333339 3.1833333333333336
4.9739583333333339 5.0364583333333339 3.208333333333333
4.9375 5.0 4.75
4.9375 4.96875 4.7312500000000002
4.9166666666666661 5.0104166666666661 4.7395833333333339
4.9375 5.03125 4.7687499999999998
4.9583333333333339 4.9895833333333339 4.7604166666666661
5.0 4.9375 4.75
4.96875 4.9375 4.7312500000000002
5.0104166666666661 4.9166666666666661 4.7395833333333339
5.03125 4.9375 4.7687499999999998
4.9895833333333339 4.9583333333333339 4.7604166666666661
5.010416666666667 5.010416666666667 4.7958333333333334
4.994791666666667 4.994791666666667 4.7833333333333332
5.0364583333333339 4.9739583333333339 4.7916666666666661
5.0364583333333339 5.0364583333333339 4.8166666666666664
4.9739583333333339 5.0364583333333339 4.7916666666666661
4.989583333333333 5.106770833333333 3.1692708333333335
4.9635416666666661 5.0846354166666661 3.1908854166666667
5.0260416666666661 5.0846354166666661 3.1658854166666668
5.005208333333333 5.126302083333333 3.1575520833333335
4.9635416666666661 5.1315104166666661 3.162760416666667
4.989583333333333 5.106770833333333 4.830729166666667
4.9635416666666661 5.0846354166666661 4.8091145833333329
5.0260416666666661 5.0846354166666661 4.8341145833333332
5.005208333333333 5.126302083333333 4.842447916666667
4.9635416666666661 5.1315104166666661 4.8372395833333339
4.989583333333333 5.177083333333333 3.1208333333333336
4.9635416666666661 5.1979166666666661 3.1072916666666668
5.0260416666666661 5.1822916666666661 3.104166666666667
5.005208333333333 5.161458333333333 3.1333333333333337
4.9635416666666661 5.1666666666666661 3.1385416666666668
5.0 5.2578125 3.0765625000000001
4.96875 5.23828125 3.0851562499999998
5.03125 5.22265625 3.08203125
5.03125 5.28515625 3.0695312499999998
4.96875 5.28515625 3.0695312499999998
4.989583333333333 5.177083333333333 4.8791666666666664
4.9635416666666661 5.1666666666666661 4.8614583333333332
5.005208333333333 5.161458333333333 4.8666666666666671
5.0260416666666661 5.1822916666666661 4.895833333333333
4.9635416666666661 5.1979166666666661 4.8927083333333332
5.0 5.2578125 4.9234375000000004
4.96875 5.23828125 4.9148437500000002
5.03125 5.22265625 4.91796875
5.03125 5.28515625 4.9304687500000002
4.96875 5.28515625 4.9304687500000002
5.0 5.375 3.0625
4.96875 5.34375 3.0625
5.03125 5.34375 3.0625
5.03125 5.40625 3.0625
4.96875 5.40625 3.0625
5.0 5.375 4.9375
4.96875 5.34375 4.9375
5.03125 5.34375 4.9375
5.03125 5.40625 4.9375
4.96875 5.40625 4.9375
5.0 5.5 3.0625
4.96875 5.46875 3.0625
5.03125 5.46875 3.0625
5.03125 5.53125 3.0625
4.96875 5.53125 3.0625
5.0 5.5 4.9375
4.96875 5.46875 4.9375
5.03125 5.46875 4.9375
5.03125 5.53125 4.9375
4.96875 5.53125 4.9375
5.0 5.625 3.0625
4.96875 5.59375 3.0625
5.03125 5.59375 3.0625
5.03125 5.65625 3.0625
4.96875 5.65625 3.0625
5.0 5.625 4.9375
4.96875 5.59375 4.9375
5.03125 5.59375 4.9375
5.03125 5.65625 4.9375
4.96875 5.65625 4.9375
5.0 5.75 3.0625
4.96875 5.71875 3.0625
5.03125 5.71875 3.0625
5.03125 5.78125 3.0625
4.96875 5.78125 3.0625
5.0 5.75 4.9375
4.96875 5.71875 4.9375
5.03125 5.71875 4.9375
5.03125 5.78125 4.9375
4.96875 5.78125 4.9375
5.0 5.875 3.0625
4.96875 5.84375 3.0625
5.03125 5.84375 3.0625
5.03125 5.90625 3.0625
4.96875 5.90625 3.0625
5.0 5.875 4.9375
4.96875 5.84375 4.9375
5.03125 5.84375 4.9375
5.03125 5.90625 4.9375
4.96875 5.90625 4.9375
5.0 6.0 3.0625
4.96875 5.96875 3.0625
5.03125 5.96875 3.0625
5.03125 6.03125 3.0625
4.96875 6.03125 3.0625
5.0 6.0 4.9375
4.96875 5.96875 4.9375
5.03125 5.96875 4.9375
5.03125 6.03125 4.9375
4.96875 6.03125 4.9375
5.0 6.125 3.0687500000000001
4.96875 6.09375 3.0656249999999998
5.03125 6.09375 3.0656249999999998
5.03125 6.15625 3.078125
4.96875 6.15625 3.0656249999999998
5.0 6.125 4.9312500000000004
4.96875 6.09375 4.9343750000000002
5.03125 6.09375 4.9343750000000002
5.03125 6.15625 4.921875
4.96875 6.15625 4.9343750000000002
4.989583333333333 6.231770833333333 3.0869791666666666
4.9635416666666661 6.2096354166666661 3.0747395833333333
5.0260416666666661 6.2096354166666661 3.087239583333333
5.005208333333333 6.251302083333333 3.0955729166666668
4.9635416666666661 6.2565104166666661 3.0903645833333333
4.989583333333333 6.231770833333333 4.9130208333333334
4.9635416666666661 6.2096354166666661 4.9252604166666671
5.0260416666666661 6.2096354166666661 4.9127604166666661
5.005208333333333 6.251302083333333 4.9044270833333332
4.9635416666666661 6.2565104166666661 4.9096354166666671
4.989583333333333 6.302083333333333 3.1291666666666664
4.9635416666666661 6.2916666666666661 3.1114583333333332
5.005208333333333 6.286458333333333 3.1166666666666663
5.0260416666666661 6.3072916666666661 3.145833333333333
4.9635416666666661 6.3229166666666661 3.1427083333333332
5.0 6.375 3.1875
4.96875 6.359375 3.171875
5.03125 6.34375 3.1749999999999998
5.03125 6.390625 3.203125
4.96875 6.40625 3.2000000000000002
4.989583333333333 6.302083333333333 4.8708333333333336
4.9635416666666661 6.3229166666666661 4.8572916666666668
5.0260416666666661 6.3072916666666661 4.854166666666667
5.005208333333333 6.286458333333333 4.8833333333333329
4.9635416666666661 6.2916666666666661 4.8885416666666668
5.0 6.375 4.8125
4.96875 6.359375 4.828125
5.03125 6.34375 4.8250000000000002
5.03125 6.390625 4.796875
4.96875 6.40625 4.7999999999999998
4.9375 6.5 3.2562500000000001
4.9375 6.46875 3.234375
4.9166666666666661 6.5104166666666661 3.2427083333333333
4.9375 6.53125 3.2843749999999998
4.9583333333333339 6.4895833333333339 3.2635416666666668
5.010416666666667 6.447916666666667 3.2458333333333336
4.9739583333333339 6.4427083333333339 3.229166666666667
5.0364583333333339 6.4270833333333339 3.2322916666666668
5.0364583333333339 6.4583333333333339 3.2635416666666668
4.994791666666667 6.463541666666667 3.2583333333333337
5.010416666666667 6.510416666666667 3.3020833333333335
4.994791666666667 6.494791666666667 3.2864583333333335
5.0364583333333339 6.4895833333333339 3.291666666666667
5.0364583333333339 6.5208333333333339 3.322916666666667
4.9739583333333339 6.5364583333333339 3.307291666666667
4.9375 6.5 4.7437500000000004
4.9583333333333339 6.4895833333333339 4.7364583333333332
4.9375 6.53125 4.7156250000000002
4.9166666666666661 6.5104166666666661 4.7572916666666671
4.9375 6.46875 4.765625
5.010416666666667 6.447916666666667 4.7541666666666664
4.994791666666667 6.463541666666667 4.7416666666666671
5.0364583333333339 6.4583333333333339 4.7364583333333332
5.0364583333333339 6.4270833333333339 4.7677083333333332
4.9739583333333339 6.4427083333333339 4.770833333333333
5.010416666666667 6.510416666666667 4.697916666666667
4.994791666666667 6.494791666666667 4.713541666666667
5.0364583333333339 6.4895833333333339 4.7083333333333339
5.0364583333333339 6.5208333333333339 4.6770833333333339
4.9739583333333339 6.5364583333333339 4.6927083333333339
4.9375 6.6187499999999995 3.375
4.9375 6.5906249999999993 3.34375
4.9166666666666661 6.6322916666666663 3.364583333333333
4.9375 6.640625 3.40625
4.9583333333333339 6.6114583333333332 3.385416666666667
5.010416666666667 6.572916666666667 3.3645833333333335
4.9739583333333339 6.5677083333333339 3.338541666666667
5.0364583333333339 6.5520833333333339 3.354166666666667
5.0364583333333339 6.5833333333333339 3.385416666666667
4.994791666666667 6.588541666666667 3.3802083333333335
5.010416666666667 6.6291666666666664 3.4270833333333335
4.994791666666667 6.6166666666666671 3.4114583333333335
5.0364583333333339 6.6114583333333332 3.416666666666667
5.0364583333333339 6.6427083333333332 3.447916666666667
4.9739583333333339 6.645833333333333 3.432291666666667
4.9375 6.6187499999999995 4.625
4.9583333333333339 6.6114583333333332 4.6145833333333339
4.9375 6.640625 4.59375
4.9166666666666661 6.6322916666666663 4.6354166666666661
4.9375 6.5906249999999993 4.65625
5.010416666666667 6.572916666666667 4.635416666666667
4.994791666666667 6.588541666666667 4.619791666666667
5.0364583333333339 6.5833333333333339 4.6145833333333339
5.0364583333333339 6.5520833333333339 4.6458333333333339
4.9739583333333339 6.5677083333333339 4.6614583333333339
5.010416666666667 6.6291666666666664 4.572916666666667
4.994791666666667 6.6166666666666671 4.588541666666667
5.0364583333333339 6.6114583333333332 4.5833333333333339
5.0364583333333339 6.6427083333333332 4.5520833333333339
4.9739583333333339 6.645833333333333 4.5677083333333339
5.0 6.6875 3.5
4.96875 6.6749999999999998 3.46875
5.03125 6.671875 3.484375
5.03125 6.7000000000000002 3.53125
4.96875 6.703125 3.515625
4.989583333333333 6.7458333333333336 3.5729166666666665
4.9635416666666661 6.7322916666666668 3.552083333333333
5.0260416666666661 6.729166666666667 3.567708333333333
5.005208333333333 6.7583333333333329 3.5885416666666665
4.9635416666666661 6.7635416666666668 3.583333333333333
5.0 6.6875 4.5
4.96875 6.703125 4.484375
5.03125 6.7000000000000002 4.46875
5.03125 6.671875 4.515625
4.96875 6.6749999999999998 4.53125
4.989583333333333 6.7458333333333336 4.427083333333333
4.9635416666666661 6.7322916666666668 4.4479166666666661
5.0260416666666661 6.729166666666667 4.4322916666666661
5.005208333333333 6.7583333333333329 4.411458333333333
4.9635416666666661 6.7635416666666668 4.4166666666666661
4.981770833333333 6.786458333333333 3.6432291666666665
4.9596354166666661 6.7838541666666661 3.618489583333333
5.001302083333333 6.778645833333333 3.6236979166666665
5.0065104166666661 6.7838541666666661 3.665364583333333
4.9596354166666661 6.7994791666666661 3.665364583333333
4.9921875 6.7984375000000004 3.75
4.96484375 6.8054687500000002 3.71875
5.01171875 6.7898437500000002 3.71875
5.02734375 6.79296875 3.78125
4.96484375 6.8054687500000002 3.78125
5.0 6.8062500000000004 3.875
4.96875 6.8093750000000002 3.84375
5.03125 6.796875 3.84375
5.03125 6.8093750000000002 3.90625
4.96875 6.8093750000000002 3.90625
5.0 6.8125 4.0
4.96875 6.8125 3.96875
5.03125 6.8125 3.96875
5.03125 6.8125 4.03125
4.96875 6.8125 4.03125
5.0 6.8062500000000004 4.125
4.96875 6.8093750000000002 4.09375
5.03125 6.8093750000000002 4.09375
5.03125 6.796875 4.15625
4.96875 6.8093750000000002 4.15625
4.9921875 6.7984375000000004 4.25
4.96484375 6.8054687500000002 4.21875
5.02734375 6.79296875 4.21875
5.01171875 6.7898437500000002 4.28125
4.96484375 6.8054687500000002 4.28125
4.981770833333333 6.786458333333333 4.356770833333333
4.9596354166666661 6.7994791666666661 4.3346354166666661
5.0065104166666661 6.7838541666666661 4.3346354166666661
5.001302083333333 6.778645833333333 4.376302083333333
4.9596354166666661 6.7838541666666661 4.3815104166666661
5.052083333333333 1.2541666666666667 3.6354166666666665
5.036458333333333 1.2416666666666667 3.6197916666666665
5.0572916666666661 1.2708333333333335 3.598958333333333
5.0729166666666661 1.2677083333333332 3.661458333333333
5.0416666666666661 1.2364583333333332 3.661458333333333
5.072916666666667 1.2458333333333331 3.7395833333333335
5.0520833333333339 1.2322916666666666 3.713541666666667
5.0833333333333339 1.2635416666666666 3.713541666666667
5.088541666666667 1.2583333333333333 3.7552083333333335
5.0677083333333339 1.2291666666666665 3.776041666666667
5.106770833333333 1.2119791666666666 3.8854166666666665
5.0846354166666661 1.2122395833333333 3.848958333333333
5.126302083333333 1.2205729166666668 3.8697916666666665
5.1315104166666661 1.2153645833333333 3.911458333333333
5.0846354166666661 1.1997395833333333 3.911458333333333
5.125 1.25 3.8125
5.09375 1.23125 3.8125
5.1354166666666661 1.2395833333333335 3.833333333333333
5.15625 1.26875 3.8125
5.1145833333333339 1.2604166666666665 3.791666666666667
5.109375 1.203125 4.0
5.0859375 1.1953125 3.96875
5.1328125 1.2109375 3.96875
5.1328125 1.2109375 4.03125
5.0859375 1.1953125 4.03125
5.106770833333333 1.2119791666666666 4.114583333333333
5.0846354166666661 1.1997395833333333 4.0885416666666661
5.1315104166666661 1.2153645833333333 4.0885416666666661
5.126302083333333 1.2205729166666668 4.130208333333333
5.0846354166666661 1.2122395833333333 4.1510416666666661
5.072916666666667 1.2458333333333333 4.260416666666667
5.0677083333333339 1.2291666666666665 4.2239583333333339
5.088541666666667 1.2583333333333333 4.244791666666667
5.0833333333333339 1.2635416666666668 4.2864583333333339
5.0520833333333339 1.2322916666666668 4.2864583333333339
5.125 1.25 4.1875
5.09375 1.23125 4.1875
5.1354166666666661 1.2395833333333335 4.1666666666666661
5.15625 1.26875 4.1875
5.1145833333333339 1.2604166666666665 4.2083333333333339
5.052083333333333 1.2541666666666667 4.364583333333333
5.0416666666666661 1.2364583333333332 4.3385416666666661
5.0729166666666661 1.2677083333333332 4.3385416666666661
5.0572916666666661 1.2708333333333335 4.4010416666666661
5.036458333333333 1.2416666666666667 4.380208333333333
5.114583333333333 1.3307291666666665 3.5182291666666665
5.0885416666666661 1.3372395833333333 3.493489583333333
5.130208333333333 1.3424479166666665 3.4986979166666665
5.1510416666666661 1.3341145833333332 3.540364583333333
5.0885416666666661 1.3091145833333333 3.540364583333333
5.114583333333333 1.3854166666666667 3.4479166666666665
5.0885416666666661 1.3645833333333335 3.458333333333333
5.130208333333333 1.3697916666666667 3.4635416666666665
5.1510416666666661 1.4114583333333335 3.442708333333333
5.0885416666666661 1.3958333333333335 3.427083333333333
5.1328125 1.3046875 3.625
5.09765625 1.29609375 3.59375
5.16015625 1.32109375 3.59375
5.16015625 1.30859375 3.65625
5.11328125 1.29296875 3.65625
5.143229166666667 1.2880208333333334 3.7395833333333335
5.1184895833333339 1.2846354166666667 3.713541666666667
5.1653645833333339 1.3002604166666667 3.713541666666667
5.1653645833333339 1.2877604166666667 3.776041666666667
5.123697916666667 1.2794270833333332 3.7552083333333335
5.143229166666667 1.2880208333333334 4.260416666666667
5.123697916666667 1.2794270833333332 4.244791666666667
5.1653645833333339 1.2877604166666667 4.2239583333333339
5.1653645833333339 1.3002604166666667 4.2864583333333339
5.1184895833333339 1.2846354166666667 4.2864583333333339
5.1328125 1.3046875 4.375
5.11328125 1.29296875 4.34375
5.16015625 1.30859375 4.34375
5.16015625 1.32109375 4.40625
5.09765625 1.29609375 4.40625
5.114583333333333 1.3307291666666667 4.481770833333333
5.0885416666666661 1.3091145833333333 4.4596354166666661
5.1510416666666661 1.3341145833333332 4.4596354166666661
5.130208333333333 1.3424479166666667 4.501302083333333
5.0885416666666661 1.3372395833333335 4.5065104166666661
5.114583333333333 1.3854166666666667 4.552083333333333
5.0885416666666661 1.3645833333333335 4.5416666666666661
5.130208333333333 1.3697916666666667 4.536458333333333
5.1510416666666661 1.4114583333333335 4.5572916666666661
5.0885416666666661 1.3958333333333335 4.5729166666666661
5.114583333333333 1.4479166666666667 3.3854166666666665
5.0885416666666661 1.4583333333333335 3.364583333333333
5.130208333333333 1.4635416666666667 3.3697916666666665
5.1510416666666661 1.4427083333333335 3.411458333333333
5.0885416666666661 1.4270833333333335 3.395833333333333
5.114583333333333 1.5104166666666667 3.3229166666666665
5.0885416666666661 1.4895833333333335 3.333333333333333
5.130208333333333 1.4947916666666667 3.3385416666666665
5.1510416666666661 1.5364583333333335 3.317708333333333
5.0885416666666661 1.5208333333333335 3.302083333333333
5.114583333333333 1.4479166666666667 4.614583333333333
5.0885416666666661 1.4270833333333335 4.6041666666666661
5.1510416666666661 1.4427083333333335 4.5885416666666661
5.130208333333333 1.4635416666666667 4.630208333333333
5.0885416666666661 1.4583333333333335 4.6354166666666661
5.114583333333333 1.5104166666666667 4.677083333333333
5.0885416666666661 1.4895833333333335 4.6666666666666661
5.130208333333333 1.4947916666666667 4.661458333333333
5.1510416666666661 1.5364583333333335 4.6822916666666661
5.0885416666666661 1.5208333333333335 4.6979166666666661
5.114583333333333 1.5729166666666667 3.2604166666666665
5.0885416666666661 1.5833333333333335 3.239583333333333
5.130208333333333 1.5885416666666667 3.2447916666666665
5.1510416666666661 1.5677083333333335 3.286458333333333
5.0885416666666661 1.5520833333333335 3.270833333333333
5.114583333333333 1.6432291666666667 3.2057291666666665
5.0885416666666661 1.6184895833333335 3.212239583333333
5.130208333333333 1.6236979166666667 3.2174479166666665
5.1510416666666661 1.6653645833333335 3.2091145833333332
5.0885416666666661 1.6653645833333335 3.1841145833333333
5.114583333333333 1.5729166666666667 4.739583333333333
5.0885416666666661 1.5520833333333335 4.7291666666666661
5.1510416666666661 1.5677083333333335 4.7135416666666661
5.130208333333333 1.5885416666666667 4.755208333333333
5.0885416666666661 1.5833333333333335 4.7604166666666661
5.114583333333333 1.6432291666666667 4.794270833333333
5.0885416666666661 1.6184895833333335 4.7877604166666661
5.130208333333333 1.6236979166666667 4.782552083333333
5.1510416666666661 1.6653645833333335 4.7908854166666668
5.0885416666666661 1.6653645833333335 4.8158854166666671
5.0625 1.75 3.125
5.0416666666666661 1.7395833333333335 3.114583333333333
5.0625 1.78125 3.1062500000000002
5.0833333333333339 1.7604166666666665 3.135416666666667
5.0625 1.71875 3.1437499999999998
5.135416666666667 1.7317708333333333 3.1692708333333335
5.0989583333333339 1.7096354166666665 3.1658854166666668
5.1614583333333339 1.7096354166666665 3.1908854166666667
5.1614583333333339 1.7565104166666665 3.162760416666667
5.119791666666667 1.7513020833333333 3.1575520833333335
5.0625 1.75 4.875
5.0625 1.71875 4.8562500000000002
5.0833333333333339 1.7604166666666665 4.8645833333333339
5.0625 1.78125 4.8937499999999998
5.0416666666666661 1.7395833333333335 4.8854166666666661
5.135416666666667 1.7317708333333333 4.830729166666667
5.0989583333333339 1.7096354166666665 4.8341145833333332
5.1614583333333339 1.7096354166666665 4.8091145833333329
5.1614583333333339 1.7565104166666665 4.8372395833333339
5.119791666666667 1.7513020833333333 4.842447916666667
5.135416666666667 1.8020833333333333 3.1208333333333336
5.0989583333333339 1.8072916666666665 3.104166666666667
5.1614583333333339 1.8229166666666665 3.1072916666666668
5.1614583333333339 1.7916666666666665 3.1385416666666668
5.119791666666667 1.7864583333333333 3.1333333333333337
